ply
format ascii 1.0
comment FreeCAD generated
element vertex 1548
property float x
property float y
property float z
end_header
-1197.403 -58.71364 -2701.153 
-1138.506 -57.40885 -2712.601 
-1079.608 -58.34625 -2724.050 
-1517.360 -480.0000 -3089.385 
-1457.717 -480.0000 -3097.002 
-1397.749 -480.0000 -3102.941 
-1336.892 -480.0000 -3104.308 
-1518.467 -420.0000 -3095.082 
-1458.311 -420.0000 -3100.056 
-1398.927 -420.0000 -3109.000 
-1337.372 -420.0000 -3106.781 
-1519.679 -360.0000 -3101.314 
-1457.719 -360.0000 -3097.009 
-1397.666 -360.0000 -3102.517 
-1337.111 -360.0000 -3105.437 
-1519.532 -300.0000 -3100.560 
-1457.525 -300.0000 -3096.013 
-1398.263 -300.0000 -3105.584 
-1336.781 -300.0000 -3103.739 
-1278.536 -300.0000 -3118.545 
-1519.236 -240.0000 -3099.034 
-1457.717 -240.0000 -3097.002 
-1397.643 -240.0000 -3102.396 
-1337.152 -240.0000 -3105.650 
-1520.084 -180.0000 -3103.399 
-1460.345 -180.0000 -3110.522 
-1398.422 -180.0000 -3106.402 
-1403.575 -120.0000 -3132.913 
-1341.339 -120.0000 -3127.188 
-1345.015 -60.00000 -3146.100 
-1283.093 -60.00000 -3141.987 
-1229.344 -60.00000 -3179.927 
-1171.008 -60.00000 -3194.265 
-1404.176 -1.414554e-14 -3136.008 
-1228.450 -3.207548e-15 -3175.326 
-1167.207 -1.969911e-14 -3174.708 
-1105.512 -1.871001e-14 -3171.766 
-1275.966 -480.0000 -3105.326 
-1215.370 -480.0000 -3108.036 
-1154.306 -480.0000 -3108.337 
-1276.569 -420.0000 -3108.428 
-1216.361 -420.0000 -3113.135 
-1153.870 -420.0000 -3106.097 
-1275.850 -360.0000 -3104.726 
-1215.176 -360.0000 -3107.035 
-1156.715 -360.0000 -3120.729 
-1214.830 -300.0000 -3105.257 
-1152.930 -300.0000 -3101.260 
-1274.872 -240.0000 -3099.694 
-1215.119 -240.0000 -3106.745 
-1154.824 -240.0000 -3111.003 
-1336.162 -180.0000 -3100.554 
-1276.692 -180.0000 -3109.060 
-1215.912 -180.0000 -3110.825 
-1153.197 -180.0000 -3102.633 
-1468.236 -120.0000 -2836.667 
-1408.598 -120.0000 -2844.305 
-1346.900 -120.0000 -2841.345 
-1287.412 -120.0000 -2849.759 
-1166.965 -120.0000 -2859.015 
-1108.661 -120.0000 -2873.514 
-1218.667 -120.0000 -2810.543 
-1388.309 -60.00000 -2739.927 
-1269.890 -60.00000 -2759.613 
-1210.671 -60.00000 -2769.411 
-1150.908 -60.00000 -2776.407 
-1375.574 -300.0000 -2674.409 
-1433.714 -240.0000 -2659.066 
-1439.208 -180.0000 -2687.327 
-1377.752 -180.0000 -2685.613 
-1322.231 -180.0000 -2714.436 
-1260.211 -180.0000 -2709.820 
-1437.992 -60.00000 -2681.071 
-1322.955 -60.00000 -2718.162 
-1082.368 -60.00000 -2738.249 
-1469.951 -180.0000 -2587.052 
-1451.205 -180.0000 -2529.573 
-1082.337 -60.00000 -2601.273 
-1180.938 -240.0000 -2520.984 
-1040.448 -60.00000 -2548.293 
-1211.908 -240.0000 -2453.841 
-1131.501 -60.00000 -2469.471 
-1184.173 -240.0000 -2398.109 
-1258.283 -60.00000 -2383.704 
-1099.668 -60.00000 -2414.535 
-1079.757 -60.00000 -2418.406 
-1403.644 -240.0000 -2294.325 
-1308.100 -60.00000 -2312.897 
-1202.965 -60.00000 -2333.334 
-1171.722 -60.00000 -2339.406 
-1108.005 -60.00000 -2351.792 
-1023.505 -60.00000 -2368.217 
-1404.611 -420.0000 -2233.015 
-1168.198 -240.0000 -2278.969 
-1177.935 -60.00000 -2277.076 
-1167.100 -60.00000 -2279.182 
-1029.467 -60.00000 -2305.935 
-1057.673 -60.00000 -2239.329 
-1025.817 -60.00000 -2245.522 
-1362.648 -198.5355 -2607.909 
-1303.750 -199.4003 -2619.358 
-1244.852 -193.7998 -2630.806 
-1185.955 -193.8635 -2642.255 
-1127.057 -195.3909 -2653.704 
-1480.443 -159.4082 -2585.012 
-1480.443 -48.43111 -2585.012 
-1421.545 -52.72374 -2596.461 
-1362.648 -51.72040 -2607.909 
-1303.750 -52.59352 -2619.358 
-1244.852 -55.45267 -2630.806 
-1185.955 -51.98345 -2642.255 
-1127.057 -58.82086 -2653.704 
-1068.159 -59.07229 -2665.152 
-1174.506 -219.3054 -2583.357 
-1115.609 -196.9318 -2594.806 
-1056.711 -198.7807 -2606.254 
-1468.994 -149.6839 -2526.115 
-1056.711 -65.36816 -2606.254 
-1468.994 -51.66485 -2526.115 
-1410.097 -51.12557 -2537.563 
-1351.199 -53.18430 -2549.012 
-1292.301 -53.81719 -2560.460 
-1233.404 -57.86792 -2571.909 
-1174.506 -58.04924 -2583.357 
-1115.609 -56.61346 -2594.806 
-1339.750 -252.2302 -2490.114 
-1280.853 -252.6695 -2501.563 
-1221.955 -254.1198 -2513.011 
-1457.546 -196.0515 -2467.217 
-1163.058 -220.8147 -2524.460 
-1104.160 -197.2031 -2535.908 
-1045.262 -196.2685 -2547.357 
-1457.546 -52.83071 -2467.217 
-1398.648 -43.85951 -2478.666 
-1339.750 -55.13480 -2490.114 
-1280.853 -55.29610 -2501.563 
-1221.955 -56.57216 -2513.011 
-1163.058 -58.70718 -2524.460 
-1104.160 -59.72270 -2535.908 
-1045.262 -59.61227 -2547.357 
-1328.302 -253.3052 -2431.217 
-1269.404 -260.2610 -2442.665 
-1210.507 -238.3961 -2454.114 
-1151.609 -208.2887 -2465.562 
-1092.712 -192.2496 -2477.011 
-1033.814 -197.5214 -2488.459 
-1092.712 -64.44445 -2477.011 
-1033.814 -63.87722 -2488.459 
-1446.097 -56.26361 -2408.320 
-1387.200 -56.22493 -2419.768 
-1328.302 -53.75118 -2431.217 
-1269.404 -58.84245 -2442.665 
-1210.507 -58.43659 -2454.114 
-1151.609 -58.23124 -2465.562 
-1434.649 -255.4188 -2349.422 
-1375.751 -254.5580 -2360.870 
-1257.956 -258.6819 -2383.767 
-1199.058 -254.5254 -2395.216 
-1140.161 -192.1890 -2406.664 
-1081.263 -191.6818 -2418.113 
-1022.365 -197.0049 -2429.562 
-1257.956 -60.01919 -2383.767 
-1199.058 -62.32658 -2395.216 
-1140.161 -60.41393 -2406.664 
-1022.365 -66.40516 -2429.562 
-1434.649 -54.86056 -2349.422 
-1375.751 -59.88851 -2360.870 
-1316.853 -57.37985 -2372.319 
-1081.263 -59.89747 -2418.113 
-1423.200 -451.3603 -2290.524 
-1364.302 -254.6114 -2301.973 
-1305.405 -253.0776 -2313.421 
-1246.507 -252.7966 -2324.870 
-1423.200 -217.9808 -2290.524 
-1128.712 -208.7656 -2347.767 
-1069.814 -191.5797 -2359.215 
-1010.917 -196.8748 -2370.664 
-1305.405 -60.60541 -2313.421 
-1246.507 -67.43911 -2324.870 
-1128.712 -66.29742 -2347.767 
-1010.917 -63.63522 -2370.664 
-1423.200 -55.43060 -2290.524 
-1364.302 -51.75724 -2301.973 
-1187.610 -58.11363 -2336.318 
-1069.814 -53.98019 -2359.215 
-1411.752 -412.8857 -2231.626 
-1411.752 -240.7170 -2231.626 
-1352.854 -255.2544 -2243.075 
-1293.956 -253.5474 -2254.524 
-1235.059 -243.8973 -2265.972 
-1176.161 -247.9984 -2277.421 
-1117.264 -191.2856 -2288.869 
-1058.366 -194.2880 -2300.318 
-999.4683 -193.1907 -2311.766 
-1176.161 -60.21506 -2277.421 
-999.4683 -64.86620 -2311.766 
-1411.752 -47.13860 -2231.626 
-1352.854 -57.80861 -2243.075 
-1293.956 -57.40171 -2254.524 
-1235.059 -55.24957 -2265.972 
-1117.264 -59.21204 -2288.869 
-1058.366 -56.04742 -2300.318 
-1341.406 -219.6372 -2184.177 
-1282.508 -223.7947 -2195.626 
-1223.610 -189.4444 -2207.075 
-1164.713 -192.8008 -2218.523 
-1105.815 -196.5249 -2229.972 
-1046.917 -194.1223 -2241.420 
-988.0198 -193.2968 -2252.869 
-1341.406 -110.5207 -2184.177 
-1282.508 -68.36637 -2195.626 
-1223.610 -80.85310 -2207.075 
-1164.713 -81.36998 -2218.523 
-1105.815 -69.73772 -2229.972 
-988.0198 -64.90691 -2252.869 
-1046.917 -57.91040 -2241.420 
-1372.613 -300.0000 -2659.178 
-1064.318 -60.00000 -2645.391 
-1465.034 -180.0000 -2505.740 
-1046.677 -60.00000 -2554.635 
-1210.774 -240.0000 -2455.490 
-1103.023 -60.00000 -2530.058 
-1043.523 -60.00000 -2538.407 
-1210.256 -240.0000 -2452.826 
-1258.091 -60.00000 -2384.460 
-1204.466 -60.00000 -2423.034 
-1141.706 -60.00000 -2414.614 
-1081.669 -60.00000 -2420.202 
-1426.848 -240.0000 -2309.288 
-1306.954 -60.00000 -2321.388 
-1193.590 -60.00000 -2367.085 
-1414.842 -420.0000 -2247.523 
-1412.361 -240.0000 -2234.762 
-1303.624 -60.00000 -2304.260 
-1240.186 -60.00000 -2292.349 
-1176.924 -60.00000 -2281.347 
-1118.714 -60.00000 -2296.333 
-1410.414 -420.0000 -2224.745 
-1411.618 -240.0000 -2230.940 
-1344.356 -240.0000 -2199.355 
-1284.812 -240.0000 -2207.478 
-1234.124 -240.0000 -2261.161 
-1174.046 -240.0000 -2266.536 
-1408.387 -60.00000 -2214.315 
-1352.576 -60.00000 -2241.647 
-1292.091 -60.00000 -2244.928 
-1233.496 -60.00000 -2257.932 
-1116.619 -60.00000 -2285.553 
-1201.824 -60.00000 -3556.015 
-1632.825 1.701962e-15 -3411.114 
-1615.398 -8.985259e-15 -3353.379 
-1433.757 -1.029602e-14 -3388.686 
-1380.526 -9.578039e-15 -3399.033 
-1583.036 2.367083e-14 -3298.546 
-1565.932 -1.339832e-14 -3240.748 
-1480.941 -120.0000 -3196.146 
-1475.463 -120.0000 -3197.210 
-1561.641 -60.00000 -3180.459 
-1510.876 -60.00000 -3190.327 
-1501.381 -1.529806e-14 -3192.173 
-1425.324 -1.183307e-14 -3145.833 
-1395.413 -7.080005e-15 -3151.647 
-1233.369 -7.734751e-15 -3183.145 
-1180.990 -67.23480 -3560.065 
-1180.990 -54.35898 -3560.065 
-1393.683 -13.50864 -3396.476 
-1477.133 -121.2944 -3196.886 
-1536.030 -92.08506 -3185.437 
-1477.133 -117.4256 -3196.886 
-1181.869 -60.00000 -3564.589 
-1180.124 -60.00000 -3555.611 
-1644.843 -2.925340e-14 -3430.781 
-1401.822 3.118522e-15 -3438.346 
-1388.814 4.316184e-15 -3371.426 
-1477.678 -120.0000 -3199.690 
-1539.587 -60.00000 -3203.733 
-1540.466 9.120432e-15 -3208.256 
-1530.796 -120.0000 -3158.510 
-1291.749 -120.0000 -3186.522 
-1241.300 -120.0000 -3241.435 
-1175.589 -120.0000 -3217.829 
-1472.683 -60.00000 -3173.992 
-1411.971 -60.00000 -3176.105 
-1473.661 -9.339301e-15 -3179.022 
-1354.670 6.225575e-16 -3195.769 
-1294.173 -4.265009e-16 -3198.991 
-2164.237 -840.0000 -985.1444 
-2360.178 -780.0000 -947.0574 
-2355.021 -720.0000 -948.0598 
-2358.210 -660.0000 -947.4400 
-2362.098 -600.0000 -946.6842 
-2366.538 -540.0000 -945.8212 
-2273.865 -840.0000 -902.7121 
-2238.924 -840.0000 -909.5040 
-2154.035 -840.0000 -926.0045 
-2350.561 -780.0000 -887.8038 
-2362.910 -720.0000 -885.4034 
-2361.712 -660.0000 -885.6362 
-2372.944 -600.0000 -883.4530 
-2372.603 -540.0000 -883.5194 
-2152.802 -840.0000 -865.1213 
-2352.812 -780.0000 -826.2432 
-2365.219 -720.0000 -823.8315 
-2366.954 -660.0000 -823.4942 
-2371.326 -600.0000 -822.6443 
-2372.948 -540.0000 -822.3291 
-2353.441 -780.0000 -764.9979 
-2363.447 -720.0000 -763.0530 
-2383.382 -660.0000 -759.1780 
-2401.666 -600.0000 -755.6240 
-2405.728 -540.0000 -754.8345 
-2367.084 -840.0000 -578.9771 
-2101.680 -840.0000 -630.5662 
-2148.040 -846.8260 -988.2927 
-2324.733 -811.7733 -953.9471 
-2265.836 -832.2933 -965.3957 
-2206.938 -824.4550 -976.8442 
-2254.387 -844.6462 -906.4981 
-2136.592 -845.9740 -929.3951 
-2313.285 -813.5124 -895.0496 
-2195.490 -820.8199 -917.9466 
-2372.182 -604.3786 -883.6010 
-2372.182 -535.5943 -883.6010 
-2125.143 -850.6226 -870.4975 
-2301.836 -827.7476 -836.1519 
-2242.938 -823.0868 -847.6004 
-2184.041 -828.5698 -859.0490 
-2360.734 -741.7279 -824.7034 
-2349.285 -785.6157 -765.8057 
-2290.388 -816.8533 -777.2543 
-2231.490 -824.4179 -788.7029 
-2172.593 -834.9594 -800.1513 
-2113.695 -830.1232 -811.5999 
-2408.183 -522.4060 -754.3572 
-2396.734 -793.8704 -695.4595 
-2337.837 -828.3888 -706.9081 
-2278.939 -815.0831 -718.3566 
-2220.042 -828.2711 -729.8051 
-2161.144 -839.2274 -741.2537 
-2102.246 -832.2074 -752.7022 
-2385.286 -836.3106 -636.5620 
-2326.388 -822.4234 -648.0104 
-2267.490 -823.7675 -659.4590 
-2208.593 -834.4930 -670.9076 
-2149.695 -819.4244 -682.3561 
-2090.798 -839.0872 -693.8046 
-2079.349 -847.9265 -634.9069 
-2314.940 -822.8949 -589.1128 
-2256.042 -830.3972 -600.5613 
-2197.144 -823.0146 -612.0099 
-2138.247 -826.3930 -623.4584 
-2215.284 -840.0000 -1019.784 
-2260.080 -840.0000 -935.7859 
-2372.579 -600.0000 -885.6417 
-2372.459 -540.0000 -885.0243 
-2250.585 -840.0000 -886.9372 
-2364.603 -720.0000 -844.6049 
-2364.771 -660.0000 -845.4716 
-2118.704 -840.0000 -837.3676 
-2352.773 -780.0000 -783.7469 
-2400.350 -780.0000 -714.0585 
-2405.322 -720.0000 -739.6367 
-2406.655 -660.0000 -746.4964 
-2407.678 -600.0000 -751.7608 
-2407.868 -540.0000 -752.7365 
-2089.655 -840.0000 -687.9236 
-2372.384 -840.0000 -570.1852 
-2246.618 -840.0000 -552.0779 
-2074.367 -840.0000 -609.2772 
-2357.626 -1.814627e-14 -1986.645 
-2358.659 -420.0000 -1925.321 
-2370.073 -360.0000 -1923.102 
-2365.780 -300.0000 -1923.936 
-2365.102 -240.0000 -1924.068 
-2357.840 -180.0000 -1925.480 
-2359.488 -120.0000 -1925.160 
-2355.565 -60.00000 -1925.922 
-2357.617 -3.426270e-14 -1925.523 
-2354.520 -420.0000 -1865.002 
-2360.240 -300.0000 -1863.890 
-2356.146 -240.0000 -1864.686 
-2356.217 -180.0000 -1864.672 
-2360.688 -120.0000 -1863.803 
-2358.638 -60.00000 -1864.202 
-2358.183 -2.071699e-14 -1864.290 
-2363.554 -420.0000 -1802.123 
-2384.714 -300.0000 -1798.010 
-2358.045 -240.0000 -1803.194 
-2358.645 -180.0000 -1803.077 
-2363.127 -120.0000 -1802.206 
-2358.648 -60.00000 -1803.077 
-2356.476 2.752920e-14 -1803.499 
-2353.014 -420.0000 -1743.049 
-2382.125 -300.0000 -1737.391 
-2354.565 -240.0000 -1742.747 
-2357.288 -180.0000 -1742.218 
-2358.170 -120.0000 -1742.047 
-2357.771 -60.00000 -1742.124 
-2359.098 -1.405787e-15 -1741.866 
-2366.928 -420.0000 -1679.221 
-2383.392 -360.0000 -1676.021 
-2380.491 -300.0000 -1676.585 
-2353.876 -240.0000 -1681.758 
-2360.492 -180.0000 -1680.472 
-2359.134 -120.0000 -1680.736 
-2357.458 -60.00000 -1681.062 
-2359.483 -4.108432e-14 -1680.669 
-2365.284 -420.0000 -1618.418 
-2382.468 -360.0000 -1615.078 
-2377.621 -300.0000 -1616.020 
-2369.323 -240.0000 -1617.633 
-2357.998 -180.0000 -1619.834 
-2358.092 -120.0000 -1619.816 
-2356.879 -60.00000 -1620.052 
-2358.507 -4.164316e-14 -1619.735 
-2362.652 -420.0000 -1557.807 
-2374.708 -360.0000 -1555.463 
-2368.456 -300.0000 -1556.678 
-2369.460 -240.0000 -1556.483 
-2356.418 -180.0000 -1559.018 
-2356.135 -120.0000 -1559.073 
-2356.302 -60.00000 -1559.041 
-2357.828 5.030366e-15 -1558.744 
-2344.827 -9.644265e-15 -1500.148 
-2378.666 -381.6388 -1860.309 
-2378.666 -333.8752 -1860.309 
-2367.218 -411.0631 -1801.411 
-2367.218 -264.1418 -1801.411 
-2355.769 -416.1260 -1742.514 
-2355.769 -243.1555 -1742.514 
-2355.769 -208.8889 -1742.514 
-2344.320 -461.2588 -1683.616 
-2382.162 -360.0000 -1878.293 
-2372.824 -300.0000 -1830.256 
-2357.100 -180.0000 -1749.361 
-2359.472 -120.0000 -1761.563 
-2357.658 -60.00000 -1752.231 
-2358.400 4.613839e-14 -1756.048 
-2354.868 -420.0000 -1737.880 
-2354.254 -240.0000 -1734.719 
-1131.788 -60.00000 -3508.506 
-1091.807 -60.00000 -3516.278 
-1130.543 -1.721105e-15 -3508.748 
-1044.048 -7.246065e-16 -3525.561 
-840.6929 2.647508e-16 -3442.843 
-713.3790 4.462189e-15 -3467.590 
-959.8298 -6.791173e-15 -3358.562 
-948.1091 -1.673099e-14 -3360.840 
-892.1477 -1.995155e-14 -3371.718 
-715.5655 -3.346916e-15 -3406.042 
-783.8457 -60.00000 -3331.647 
-668.7054 -60.00000 -3354.028 
-1006.906 -1.626888e-14 -3288.289 
-1048.711 -1.741396e-14 -3219.039 
-1110.643 -88.75026 -3512.616 
-1051.746 -7.142100 -3524.064 
-793.2583 -21.93083 -3452.063 
-734.3607 -20.05775 -3463.512 
-958.5027 -0.9132661 -3358.820 
-840.7074 -32.78017 -3381.717 
-781.8098 -52.75318 -3393.166 
-722.9121 -26.69683 -3404.614 
-770.3613 -64.28748 -3334.268 
-711.4637 -89.62148 -3345.717 
-1005.952 -1.088440 -3288.474 
-947.0542 -16.76132 -3299.922 
-888.1566 -27.91226 -3311.371 
-829.2589 -50.24417 -3322.820 
-652.5660 -30.56218 -3357.165 
-641.1175 -134.4392 -3298.267 
-1117.571 -2.134689e-16 -3548.257 
-1054.378 4.541402e-15 -3537.608 
-1107.038 -60.00000 -3494.069 
-1104.506 -6.745418e-15 -3481.041 
-1047.666 9.566031e-15 -3503.076 
-799.5382 -9.670568e-15 -3484.371 
-739.5049 -4.854024e-15 -3489.977 
-958.7868 -1.184438e-14 -3360.281 
-850.4505 1.338943e-14 -3431.841 
-773.8933 -60.00000 -3352.439 
-720.6877 -60.00000 -3393.170 
-1006.117 -1.269093e-15 -3289.324 
-898.0314 -8.372948e-15 -3362.173 
-655.1320 -3.514525e-15 -3370.366 
-996.8116 -120.0000 -3241.452 
-937.3652 -120.0000 -3250.077 
-823.2717 -120.0000 -3292.018 
-761.1756 -120.0000 -3287.012 
-704.4894 -120.0000 -3309.837 
-644.2395 -120.0000 -3314.329 
-826.1630 -60.00000 -3306.893 
-649.2589 -60.00000 -3340.151 
-2086.165 -840.0000 -939.1972 
-2068.027 -840.0000 -942.7228 
-1694.300 -840.0000 -1015.368 
-2005.375 -840.0000 -893.7780 
-1940.329 -840.0000 -906.4216 
-2048.915 -840.0000 -824.1918 
-2057.827 -840.0000 -761.3365 
-1985.062 -840.0000 -775.4806 
-1984.362 -840.0000 -775.6166 
-1946.100 -840.0000 -721.9310 
-1858.297 -840.0000 -738.9980 
-1854.536 -840.0000 -739.7292 
-1625.955 -840.0000 -784.1608 
-2046.712 -840.0000 -641.2509 
-1970.409 -840.0000 -656.0826 
-1949.465 -840.0000 -660.1537 
-1887.358 -840.0000 -672.2263 
-2089.143 -848.9017 -999.7413 
-2030.245 -840.5493 -1011.190 
-1971.347 -852.8970 -1022.638 
-1912.450 -843.5172 -1034.087 
-1853.552 -852.6562 -1045.535 
-1794.655 -862.9506 -1056.984 
-1735.757 -867.5042 -1068.432 
-2018.797 -847.0953 -952.2922 
-1959.899 -860.5188 -963.7407 
-1901.001 -849.0739 -975.1893 
-1842.104 -855.9052 -986.6378 
-1783.206 -856.2147 -998.0864 
-1724.308 -846.6805 -1009.535 
-2077.694 -838.9651 -940.8437 
-2066.246 -844.4550 -881.9460 
-2007.348 -840.1163 -893.3945 
-1889.553 -852.7511 -916.2916 
-1830.655 -858.9261 -927.7401 
-1771.757 -866.1281 -939.1886 
-1712.860 -855.4150 -950.6371 
-1948.450 -837.8244 -904.8430 
-1995.899 -848.7287 -834.4969 
-1937.002 -847.8830 -845.9455 
-1878.104 -861.5967 -857.3940 
-1819.207 -861.5310 -868.8425 
-1760.309 -853.6838 -880.2911 
-1701.411 -855.3863 -891.7396 
-2054.797 -838.9667 -823.0484 
-2043.349 -842.7124 -764.1508 
-1925.553 -854.7220 -787.0477 
-1866.656 -855.3152 -798.4963 
-1807.758 -848.2092 -809.9448 
-1748.860 -859.3445 -821.3933 
-1689.963 -863.8781 -832.8419 
-1984.451 -839.9693 -775.5992 
-1914.105 -844.9885 -728.1502 
-1796.310 -854.8290 -751.0472 
-1737.412 -857.0989 -762.4958 
-1678.514 -871.6927 -773.9443 
-2031.900 -832.0149 -705.2531 
-1973.002 -836.8235 -716.7017 
-1855.207 -839.7879 -739.5988 
-1961.554 -841.3119 -657.8040 
-1843.759 -850.0246 -680.7010 
-1784.861 -859.3525 -692.1495 
-1725.963 -866.5038 -703.5981 
-1667.066 -856.7812 -715.0466 
-2020.452 -833.5827 -646.3555 
-1902.656 -836.6199 -669.2524 
-2033.077 -840.0000 -1025.759 
-2078.698 -840.0000 -946.0070 
-2075.047 -840.0000 -927.2225 
-1949.998 -840.0000 -912.8059 
-2056.732 -840.0000 -833.0012 
-1945.964 -840.0000 -892.0505 
-2051.631 -840.0000 -806.7622 
-1984.486 -840.0000 -775.7780 
-2041.027 -840.0000 -752.2083 
-1855.336 -840.0000 -740.2603 
-1964.547 -840.0000 -673.1998 
-1908.786 -840.0000 -700.7844 
-1855.017 -840.0000 -738.6219 
-1894.812 -840.0000 -628.8968 
-1491.876 -120.0000 -1604.822 
-1505.265 -180.0000 -1541.096 
-1426.362 -180.0000 -1556.433 
-1522.031 -120.0000 -1537.838 
-1289.659 -60.00000 -1583.006 
-1513.878 -120.0000 -1478.299 
-1400.088 -180.0000 -1439.295 
-1357.134 -180.0000 -1447.644 
-1505.075 -120.0000 -1418.887 
-1450.172 -120.0000 -1368.436 
-1367.833 -120.0000 -1323.318 
-1473.959 -156.1480 -1608.305 
-1415.062 -165.1373 -1619.753 
-1356.164 -159.7451 -1631.202 
-1473.959 -108.3565 -1608.305 
-1415.062 -70.19608 -1619.753 
-1356.164 -77.13108 -1631.202 
-1462.511 -187.4384 -1549.407 
-1521.408 -131.3151 -1537.958 
-1403.613 -162.3941 -1560.855 
-1344.716 -166.6721 -1572.304 
-1521.408 -119.3017 -1537.958 
-1462.511 -91.22378 -1549.407 
-1403.613 -75.02285 -1560.855 
-1344.716 -75.50903 -1572.304 
-1509.960 -154.8305 -1479.061 
-1451.062 -174.5206 -1490.509 
-1392.165 -159.1958 -1501.958 
-1333.267 -156.5903 -1513.406 
-1509.960 -110.1999 -1479.061 
-1451.062 -77.02856 -1490.509 
-1392.165 -82.51533 -1501.958 
-1333.267 -80.08279 -1513.406 
-1380.716 -183.9712 -1443.060 
-1498.511 -157.9334 -1420.163 
-1439.614 -167.8283 -1431.612 
-1321.818 -172.4266 -1454.509 
-1498.511 -112.2967 -1420.163 
-1439.614 -104.9574 -1431.612 
-1380.716 -77.41550 -1443.060 
-1321.818 -79.11356 -1454.509 
-1428.165 -148.7406 -1372.714 
-1369.268 -157.0261 -1384.163 
-1310.370 -148.6947 -1395.611 
-1428.165 -111.7441 -1372.714 
-1369.268 -72.14622 -1384.163 
-1310.370 -89.99443 -1395.611 
-1357.819 -142.0527 -1325.265 
-1298.922 -155.6345 -1336.714 
-1357.819 -97.98547 -1325.265 
-1298.922 -88.24646 -1336.714 
-1361.251 -180.0000 -1657.373 
-1469.576 -180.0000 -1585.753 
-1521.857 -120.0000 -1540.267 
-1452.659 -180.0000 -1498.723 
-1382.795 -180.0000 -1453.754 
-1379.044 -180.0000 -1434.457 
-1492.544 -120.0000 -1389.466 
-1425.554 -120.0000 -1359.279 
-1357.294 -120.0000 -1322.564 
-1292.452 -120.0000 -1303.431 
-956.9804 -420.0000 -2014.410 
-1330.689 -180.0000 -1941.769 
-1265.103 -180.0000 -1954.517 
-937.5762 -420.0000 -1957.059 
-1315.413 -180.0000 -1883.615 
-1255.614 -180.0000 -1895.239 
-1199.087 -180.0000 -1906.226 
-1132.732 -180.0000 -1919.124 
-1241.468 -120.0000 -1897.988 
-1213.081 -120.0000 -1903.506 
-1184.570 -180.0000 -1847.925 
-1060.461 -180.0000 -1872.050 
-951.0737 -180.0000 -1893.312 
-1247.898 -180.0000 -1774.493 
-1329.957 -223.3535 -2125.280 
-1271.059 -228.7154 -2136.728 
-1212.162 -194.9982 -2148.177 
-1153.264 -195.6590 -2159.625 
-1094.366 -192.0158 -2171.074 
-1035.469 -189.1231 -2182.522 
-976.5712 -189.9675 -2193.971 
-1329.957 -92.64809 -2125.280 
-1271.059 -97.67701 -2136.728 
-1212.162 -69.73577 -2148.177 
-1153.264 -80.73514 -2159.625 
-1094.366 -71.64231 -2171.074 
-1035.469 -71.19493 -2182.522 
-976.5712 -65.15749 -2193.971 
-1318.509 -196.3075 -2066.382 
-1259.611 -192.3970 -2077.831 
-1200.713 -195.6202 -2089.279 
-1141.816 -195.0590 -2100.728 
-1082.918 -190.9072 -2112.176 
-1024.020 -187.4062 -2123.625 
-965.1227 -191.9381 -2135.073 
-1318.509 -104.8540 -2066.382 
-1259.611 -77.24129 -2077.831 
-1200.713 -77.60509 -2089.279 
-1141.816 -67.49217 -2100.728 
-1082.918 -79.47922 -2112.176 
-1024.020 -75.78345 -2123.625 
-965.1227 -71.71540 -2135.073 
-1307.060 -195.3439 -2007.484 
-1248.162 -190.2096 -2018.933 
-1189.265 -194.6048 -2030.382 
-1130.367 -194.3235 -2041.830 
-1071.469 -191.5733 -2053.279 
-1012.572 -192.4556 -2064.727 
-953.6743 -186.8114 -2076.176 
-1307.060 -78.96886 -2007.484 
-1248.162 -90.05040 -2018.933 
-1189.265 -77.01446 -2030.382 
-1130.367 -76.00327 -2041.830 
-1071.469 -72.23526 -2053.279 
-1012.572 -73.00898 -2064.727 
-953.6743 -73.12871 -2076.176 
-942.2257 -440.9889 -2017.278 
-942.2257 -402.2254 -2017.278 
-1236.714 -189.8253 -1960.036 
-1177.816 -192.0303 -1971.484 
-1118.919 -194.2419 -1982.932 
-1060.021 -195.0482 -1994.381 
-1001.123 -193.5616 -2005.830 
-942.2257 -190.9211 -2017.278 
-1295.611 -152.1498 -1948.587 
-1295.611 -71.86131 -1948.587 
-1236.714 -89.36230 -1960.036 
-1177.816 -81.51154 -1971.484 
-1118.919 -73.58918 -1982.932 
-1060.021 -72.98760 -1994.381 
-1001.123 -72.83503 -2005.830 
-942.2257 -83.66457 -2017.278 
-930.7771 -427.7378 -1958.380 
-930.7771 -410.8436 -1958.380 
-1225.265 -190.4535 -1901.138 
-1107.470 -189.2238 -1924.035 
-1048.572 -189.6432 -1935.483 
-989.6747 -191.2293 -1946.932 
-930.7771 -193.6281 -1958.380 
-1284.163 -148.3996 -1889.689 
-1225.265 -134.5745 -1901.138 
-1166.368 -149.7599 -1912.586 
-1284.163 -80.04300 -1889.689 
-1166.368 -73.78808 -1912.586 
-1107.470 -81.10841 -1924.035 
-1048.572 -86.12763 -1935.483 
-989.6747 -86.16284 -1946.932 
-930.7771 -74.98983 -1958.380 
-1272.714 -185.0698 -1830.792 
-1213.817 -192.0285 -1842.240 
-1037.124 -190.3032 -1876.586 
-978.2263 -189.8795 -1888.034 
-1154.919 -152.9365 -1853.689 
-1096.021 -144.8375 -1865.137 
-919.3286 -156.7351 -1899.483 
-1272.714 -76.13922 -1830.792 
-1213.817 -70.13412 -1842.240 
-1154.919 -77.27215 -1853.689 
-1096.021 -81.47163 -1865.137 
-1037.124 -81.96800 -1876.586 
-978.2263 -70.70984 -1888.034 
-919.3286 -79.03831 -1899.483 
-1261.266 -183.4641 -1771.894 
-1202.368 -155.2909 -1783.343 
-1143.471 -144.9406 -1794.791 
-1084.573 -153.1565 -1806.240 
-1025.675 -156.7608 -1817.688 
-966.7777 -160.8984 -1829.137 
-907.8801 -141.8916 -1840.585 
-1261.266 -64.15884 -1771.894 
-1202.368 -75.87298 -1783.343 
-1143.471 -83.70193 -1794.791 
-1084.573 -80.82163 -1806.240 
-1025.675 -68.99567 -1817.688 
-966.7777 -78.36978 -1829.137 
-907.8801 -83.43684 -1840.585 
-1045.136 -60.00000 -2232.257 
-945.2007 -420.0000 -2032.584 
-1300.130 -180.0000 -1971.833 
-1172.208 -180.0000 -1942.635 
-1228.445 -120.0000 -1917.494 
-929.5054 -420.0000 -1951.838 
-1276.293 -180.0000 -1849.203 
-1102.859 -180.0000 -1900.312 
-923.8493 -180.0000 -1922.740 
-1222.450 -120.0000 -1886.657 
-1207.820 -180.0000 -1811.389 
-1030.792 -180.0000 -1844.013 
-971.7488 -180.0000 -1854.711 
-1259.461 -180.0000 -1762.609 
-1497.810 -120.0000 -2581.636 
-1485.672 -60.00000 -2583.996 
-1486.083 -120.0000 -2522.793 
-1475.765 -60.00000 -2524.799 
-1479.323 -180.0000 -2462.984 
-1533.311 -120.0000 -2452.490 
-1502.467 -60.00000 -2458.485 
-1506.593 -240.0000 -2396.560 
-1488.130 -180.0000 -2400.149 
-1565.476 -120.0000 -2385.115 
-1529.759 -120.0000 -2392.057 
-1499.179 -120.0000 -2398.001 
-1463.715 -60.00000 -2404.895 
-1497.305 -300.0000 -2337.243 
-1490.645 -300.0000 -2338.537 
-1511.388 -240.0000 -2334.505 
-1464.134 -180.0000 -2343.690 
-1554.389 -120.0000 -2326.147 
-1494.565 -60.00000 -2337.775 
-1493.598 -360.0000 -2276.840 
-1472.928 -360.0000 -2280.858 
-1557.906 -240.0000 -2264.340 
-1444.858 -240.0000 -2286.314 
-1518.926 -180.0000 -2271.917 
-1553.856 -120.0000 -2265.127 
-1486.715 -60.00000 -2278.178 
-1471.217 -360.0000 -2220.068 
-1470.200 -360.0000 -2220.265 
-1494.146 -240.0000 -2215.611 
-1538.661 -180.0000 -2206.958 
-1539.267 -120.0000 -2206.840 
-1471.823 -60.00000 -2219.950 
-1516.443 -135.9522 -2455.769 
-1516.443 -63.30008 -2455.769 
-1504.995 -230.9535 -2396.871 
-1563.893 -121.6712 -2385.422 
-1563.893 -118.6471 -2385.422 
-1493.546 -313.7139 -2337.973 
-1493.546 -207.6266 -2337.973 
-1552.444 -122.0617 -2326.525 
-1493.546 -139.1301 -2337.973 
-1552.444 -115.7906 -2326.525 
-1493.546 -58.30459 -2337.973 
-1540.995 -257.2275 -2267.627 
-1540.995 -201.2166 -2267.627 
-1540.995 -149.4672 -2267.627 
-1540.995 -105.5115 -2267.627 
-1482.098 -53.65299 -2279.076 
-1529.547 -194.7006 -2208.729 
-1529.547 -98.92130 -2208.729 
-1470.649 -58.34947 -2220.178 
-1520.194 -120.0000 -2475.063 
-1505.585 -240.0000 -2399.905 
-1564.436 -120.0000 -2388.219 
-1505.942 -120.0000 -2401.741 
-1503.795 -120.0000 -2390.698 
-1495.357 -60.00000 -2347.287 
-1487.974 -360.0000 -2309.304 
-1544.283 -240.0000 -2284.538 
-1487.797 -180.0000 -2308.398 
-1536.045 -240.0000 -2242.160 
-1534.559 -180.0000 -2234.514 
-1470.554 -360.0000 -2219.686 
-1466.470 -240.0000 -2198.679 
-1988.492 -780.0000 -3341.980 
-1968.013 -720.0000 -3345.960 
-1986.856 -660.0000 -3342.298 
-2105.043 -600.0000 -3319.325 
-1973.833 -600.0000 -3344.829 
-1981.092 -540.0000 -3343.418 
-1949.531 -780.0000 -3288.430 
-1908.931 -720.0000 -3296.322 
-1930.634 -660.0000 -3292.103 
-1910.674 -600.0000 -3295.983 
-1908.649 -540.0000 -3296.377 
-1901.209 -780.0000 -3236.700 
-1886.811 -720.0000 -3239.499 
-1875.830 -660.0000 -3241.633 
-1879.198 -600.0000 -3240.978 
-1878.000 -540.0000 -3241.211 
-1877.581 -780.0000 -3180.170 
-1862.159 -720.0000 -3183.167 
-1864.847 -660.0000 -3182.645 
-1855.290 -600.0000 -3184.502 
-1861.064 -540.0000 -3183.380 
-1866.993 -780.0000 -3121.105 
-1847.299 -720.0000 -3124.933 
-1842.832 -660.0000 -3125.801 
-1837.904 -600.0000 -3126.759 
-1835.979 -540.0000 -3127.133 
-2047.633 -780.0000 -3024.869 
-1717.159 -780.0000 -3089.106 
-1723.757 -720.0000 -3087.824 
-1706.361 -660.0000 -3091.205 
-1704.675 -600.0000 -3091.533 
-1709.758 -540.0000 -3090.545 
-2111.903 -781.8663 -3317.991 
-2053.006 -789.5196 -3329.440 
-1994.108 -785.5974 -3340.888 
-2111.903 -606.2637 -3317.991 
-2111.903 -581.1959 -3317.991 
-1994.108 -519.1752 -3340.888 
-2100.455 -796.1893 -3259.093 
-2041.557 -802.5380 -3270.542 
-1982.660 -806.3228 -3281.990 
-1923.762 -756.9457 -3293.439 
-1923.762 -675.0962 -3293.439 
-1923.762 -642.8705 -3293.439 
-1923.762 -487.5731 -3293.439 
-2089.006 -804.1263 -3200.196 
-2030.109 -814.0724 -3211.644 
-1971.211 -816.4850 -3223.093 
-1912.313 -795.5931 -3234.541 
-2077.558 -795.9443 -3141.298 
-2018.660 -811.1973 -3152.747 
-1959.762 -814.6248 -3164.195 
-1900.865 -806.1281 -3175.644 
-2066.109 -788.9552 -3082.401 
-2007.212 -813.2108 -3093.849 
-1948.314 -817.0276 -3105.298 
-1889.416 -804.2269 -3116.746 
-1995.763 -815.4268 -3034.951 
-1936.865 -810.4185 -3046.400 
-1877.968 -800.9972 -3057.848 
-1819.070 -798.5458 -3069.297 
-1760.172 -786.1425 -3080.745 
-1701.275 -506.7137 -3092.194 
-2112.439 -780.0000 -3320.748 
-2054.828 -780.0000 -3338.816 
-1995.290 -780.0000 -3346.969 
-2116.368 -720.0000 -3340.962 
-2057.781 -720.0000 -3354.008 
-1996.607 -720.0000 -3353.747 
-2116.803 -660.0000 -3343.197 
-2057.690 -660.0000 -3353.540 
-1995.677 -660.0000 -3348.960 
-2056.564 -600.0000 -3347.744 
-1995.952 -600.0000 -3350.375 
-2113.132 -540.0000 -3324.314 
-2054.530 -540.0000 -3337.281 
-1994.855 -540.0000 -3344.732 
-1931.059 -720.0000 -3330.979 
-2111.303 -600.0000 -3314.905 
-1930.800 -600.0000 -3329.647 
-1931.704 -540.0000 -3334.300 
-1917.981 -780.0000 -3263.699 
-1922.750 -660.0000 -3288.233 
-2057.828 -780.0000 -3039.796 
-1822.316 -780.0000 -3085.993 
-1761.395 -780.0000 -3087.034 
-1825.239 -720.0000 -3101.031 
-1762.848 -720.0000 -3094.508 
-1826.733 -660.0000 -3108.721 
-1762.756 -660.0000 -3094.036 
-1827.341 -600.0000 -3111.848 
-1762.963 -600.0000 -3095.100 
-1827.646 -540.0000 -3113.413 
-1763.344 -540.0000 -3097.061 
-2249.956 -780.0000 -3291.156 
-2309.030 -720.0000 -3279.674 
-2303.504 -660.0000 -3280.748 
-2225.226 -600.0000 -3295.963 
-2116.665 -600.0000 -3317.065 
-2214.600 -540.0000 -3298.029 
-2176.059 -780.0000 -3244.397 
-2255.922 -720.0000 -3228.874 
-2318.847 -660.0000 -3216.642 
-2319.802 -600.0000 -3216.456 
-2319.756 -540.0000 -3216.466 
-2176.009 -780.0000 -3183.284 
-2239.919 -720.0000 -3170.861 
-2301.723 -660.0000 -3158.848 
-2322.301 -600.0000 -3154.848 
-2351.229 -540.0000 -3149.225 
-2103.738 -780.0000 -3136.209 
-2324.263 -720.0000 -3093.344 
-2253.324 -720.0000 -3107.133 
-2175.635 -720.0000 -3122.234 
-2322.927 -660.0000 -3093.603 
-2207.113 -660.0000 -3116.115 
-2186.318 -660.0000 -3120.157 
-2368.830 -600.0000 -3084.681 
-2372.844 -540.0000 -3083.900 
-2082.390 -780.0000 -3079.236 
-2185.202 -720.0000 -3059.251 
-2357.369 -660.0000 -3025.785 
-2209.020 -660.0000 -3054.622 
-2157.369 -660.0000 -3064.661 
-2372.362 -600.0000 -3022.871 
-2188.353 -600.0000 -3058.639 
-2164.455 -600.0000 -3063.284 
-2378.140 -540.0000 -3021.748 
-2229.698 -786.4828 -3295.094 
-2170.801 -780.9843 -3306.542 
-2288.596 -756.6855 -3283.646 
-2288.596 -616.6486 -3283.646 
-2229.698 -614.9473 -3295.094 
-2159.352 -792.4590 -3247.645 
-2218.250 -747.0191 -3236.196 
-2277.148 -700.2929 -3224.748 
-2336.045 -507.4204 -3213.299 
-2147.904 -800.9385 -3188.747 
-2206.802 -751.0226 -3177.299 
-2265.699 -690.3280 -3165.850 
-2324.597 -591.7210 -3154.402 
-2313.148 -754.0696 -3095.504 
-2254.251 -722.0598 -3106.953 
-2136.455 -769.3163 -3129.850 
-2195.353 -644.2692 -3118.401 
-2372.046 -565.0633 -3084.055 
-2372.046 -535.8403 -3084.055 
-2183.904 -720.7242 -3059.503 
-2125.007 -762.8483 -3070.952 
-2301.700 -698.8220 -3036.606 
-2242.802 -701.1880 -3048.055 
-2183.904 -719.1809 -3059.503 
-2360.597 -653.0364 -3025.158 
-2183.904 -585.6998 -3059.503 
-2233.294 -780.0000 -3313.593 
-2171.229 -780.0000 -3308.748 
-2296.492 -720.0000 -3324.265 
-2235.194 -720.0000 -3323.366 
-2176.794 -720.0000 -3337.377 
-2296.185 -660.0000 -3322.684 
-2232.636 -660.0000 -3310.207 
-2177.387 -660.0000 -3340.423 
-2177.343 -600.0000 -3340.198 
-2175.311 -540.0000 -3329.744 
-2228.170 -780.0000 -3287.231 
-2282.867 -720.0000 -3254.170 
-2286.989 -600.0000 -3275.375 
-2227.220 -600.0000 -3282.345 
-2284.145 -540.0000 -3260.744 
-2228.950 -540.0000 -3291.241 
-2332.758 -540.0000 -3196.386 
-2139.686 -780.0000 -3146.471 
-2316.126 -720.0000 -3110.823 
-2254.431 -720.0000 -3107.879 
-2200.365 -720.0000 -3144.186 
-2314.535 -660.0000 -3102.638 
-2196.296 -660.0000 -3123.254 
-2322.932 -600.0000 -3145.839 
-2372.403 -540.0000 -3085.892 
-2307.580 -720.0000 -3066.859 
-2253.982 -720.0000 -3105.568 
-2184.073 -720.0000 -3060.371 
-2370.636 -600.0000 -3076.801 
-2187.822 -600.0000 -3079.657 
-2183.829 -720.0000 -3059.117 
-2118.805 -720.0000 -3039.047 
-2359.950 -660.0000 -3021.827 
-2237.392 -660.0000 -3020.224 
-2115.760 -660.0000 -3023.379 
-2178.051 -540.0000 -3029.388 
-2021.966 -780.0000 -2907.612 
-1984.314 -814.6192 -2976.054 
-1925.417 -813.9586 -2987.502 
-1866.519 -805.8030 -2998.951 
-1807.622 -804.4648 -3010.399 
-1748.724 -806.8661 -3021.848 
-1689.826 -800.3488 -3033.296 
-1630.929 -809.2600 -3044.745 
-1572.031 -811.4194 -3056.193 
-1972.866 -814.8148 -2917.156 
-1913.969 -814.1214 -2928.605 
-1855.071 -809.5897 -2940.053 
-1796.173 -802.4439 -2951.502 
-1737.276 -810.4060 -2962.950 
-1678.378 -807.9529 -2974.399 
-1619.480 -810.9775 -2985.847 
-1560.583 -816.2989 -2997.296 
-1961.417 -819.0350 -2858.259 
-1902.520 -809.9753 -2869.707 
-1843.622 -816.7905 -2881.156 
-1784.725 -810.5795 -2892.604 
-1725.827 -805.9001 -2904.053 
-1666.929 -812.7753 -2915.501 
-1608.032 -811.2068 -2926.950 
-1549.134 -819.3744 -2938.398 
-1949.969 -810.4860 -2799.361 
-1891.071 -816.5247 -2810.809 
-1832.174 -821.9146 -2822.258 
-1773.276 -814.4079 -2833.706 
-1714.378 -806.4858 -2845.155 
-1655.481 -807.7275 -2856.603 
-1596.583 -817.4694 -2868.052 
-1537.685 -816.9702 -2879.500 
-1938.520 -817.3217 -2740.463 
-1879.623 -816.6292 -2751.912 
-1820.725 -826.0142 -2763.360 
-1761.828 -822.2222 -2774.809 
-1702.930 -814.0417 -2786.257 
-1644.032 -815.9171 -2797.706 
-1585.135 -820.0055 -2809.154 
-1526.237 -821.5677 -2820.603 
-1927.072 -822.5124 -2681.565 
-1868.174 -809.1896 -2693.014 
-1809.276 -811.9619 -2704.463 
-1750.379 -815.6949 -2715.911 
-1691.481 -815.7157 -2727.360 
-1632.584 -816.8899 -2738.808 
-1573.686 -823.2238 -2750.257 
-1514.788 -821.0098 -2761.705 
-1915.623 -821.1505 -2622.668 
-1856.726 -811.2592 -2634.116 
-1797.828 -815.3019 -2645.565 
-1738.931 -829.9952 -2657.013 
-1680.033 -812.2143 -2668.462 
-1621.135 -808.2837 -2679.911 
-1562.238 -820.5652 -2691.359 
-1503.340 -813.2766 -2702.808 
-1700.308 -780.0000 -3087.220 
-1637.204 -780.0000 -3077.030 
-1576.987 -780.0000 -3081.688 
-1699.769 -720.0000 -3084.448 
-1638.243 -720.0000 -3082.375 
-1578.415 -720.0000 -3089.036 
-1701.092 -660.0000 -3091.252 
-1639.248 -660.0000 -3087.545 
-1579.100 -660.0000 -3092.563 
-1701.156 -600.0000 -3091.581 
-1639.704 -600.0000 -3089.892 
-1580.448 -600.0000 -3099.494 
-1700.804 -540.0000 -3089.772 
-1640.377 -540.0000 -3093.350 
-1580.718 -540.0000 -3100.882 
-1400.557 -780.0000 -3089.525 
-1329.745 -720.0000 -3103.289 
-1360.834 -660.0000 -3097.246 
-1355.697 -600.0000 -3098.245 
-1355.456 -540.0000 -3098.291 
-1513.133 -807.9424 -3067.642 
-1454.236 -804.7141 -3079.091 
-1395.338 -769.0052 -3090.539 
-1336.441 -731.6096 -3101.988 
-1336.441 -703.7410 -3101.988 
-1336.441 -503.4173 -3101.988 
-1501.685 -816.3800 -3008.744 
-1442.787 -817.9454 -3020.193 
-1383.890 -812.5751 -3031.641 
-1324.992 -814.7704 -3043.090 
-1266.094 -823.9499 -3054.539 
-1207.197 -814.3305 -3065.987 
-1148.299 -814.0909 -3077.436 
-1490.236 -818.1439 -2949.847 
-1431.339 -817.6004 -2961.295 
-1372.441 -818.4385 -2972.744 
-1313.544 -821.7053 -2984.192 
-1254.646 -827.9645 -2995.641 
-1195.748 -822.6891 -3007.089 
-1136.851 -820.2700 -3018.538 
-1478.788 -823.7708 -2890.949 
-1419.890 -826.3048 -2902.397 
-1360.993 -821.6291 -2913.846 
-1302.095 -826.0376 -2925.295 
-1243.197 -825.2555 -2936.743 
-1184.300 -826.8625 -2948.192 
-1125.402 -826.5625 -2959.640 
-1467.339 -817.5633 -2832.051 
-1408.442 -827.7494 -2843.500 
-1349.544 -827.3450 -2854.948 
-1290.646 -830.8405 -2866.397 
-1231.749 -831.7688 -2877.845 
-1172.851 -828.7413 -2889.294 
-1113.953 -825.6570 -2900.743 
-1455.891 -820.5541 -2773.154 
-1396.993 -824.0055 -2784.602 
-1338.096 -830.1639 -2796.051 
-1279.198 -827.4786 -2807.499 
-1220.300 -829.9656 -2818.948 
-1161.403 -830.2026 -2830.396 
-1102.505 -827.3779 -2841.845 
-1444.442 -814.6177 -2714.256 
-1385.545 -825.0350 -2725.705 
-1326.647 -829.6919 -2737.153 
-1267.749 -830.8909 -2748.602 
-1208.852 -832.6644 -2760.050 
-1149.954 -831.8269 -2771.499 
-1091.057 -817.3647 -2782.947 
-1517.064 -780.0000 -3087.864 
-1456.940 -780.0000 -3093.003 
-1518.063 -720.0000 -3093.003 
-1458.885 -720.0000 -3103.008 
-1396.943 -720.0000 -3098.797 
-1336.830 -720.0000 -3103.990 
-1518.363 -660.0000 -3094.544 
-1457.027 -660.0000 -3093.449 
-1396.451 -660.0000 -3096.265 
-1518.445 -600.0000 -3094.969 
-1457.472 -600.0000 -3095.741 
-1397.011 -600.0000 -3099.147 
-1518.389 -540.0000 -3094.679 
-1457.872 -540.0000 -3097.799 
-1397.097 -540.0000 -3099.586 
-1394.773 -780.0000 -3087.634 
-1334.318 -780.0000 -3091.070 
-1273.257 -780.0000 -3091.388 
-1213.224 -780.0000 -3096.992 
-1152.634 -780.0000 -3099.736 
-1275.568 -720.0000 -3103.273 
-1215.144 -720.0000 -3106.873 
-1155.457 -720.0000 -3114.258 
-1335.768 -660.0000 -3098.525 
-1276.404 -660.0000 -3107.579 
-1215.178 -660.0000 -3107.047 
-1155.048 -660.0000 -3112.154 
-1335.873 -600.0000 -3099.068 
-1276.237 -600.0000 -3106.716 
-1215.907 -600.0000 -3110.795 
-1154.417 -600.0000 -3108.910 
-1335.878 -540.0000 -3099.094 
-1275.603 -540.0000 -3103.457 
-1215.183 -540.0000 -3107.074 
-1154.385 -540.0000 -3108.747 
-1080.726 -780.0000 -2729.803 
-2287.468 540.0000 -762.2344 
-2287.802 600.0000 -763.9523 
-2346.032 660.0000 -749.0670 
-2346.017 720.0000 -748.9885 
-2345.949 780.0000 -748.6420 
-2406.490 840.0000 -745.6492 
-2346.828 840.0000 -753.1633 
-2346.805 900.0000 -753.0455 
-2404.597 960.0000 -735.9094 
-2346.344 960.0000 -750.6730 
-2396.484 480.0000 -694.1697 
-2295.508 1260.000 -531.7670 
-2283.583 1260.000 -472.9619 
-2309.115 1260.000 -284.6299 
-2421.286 1224.175 -507.3181 
-2303.491 1251.867 -530.2151 
-2244.594 1302.102 -541.6637 
-2409.838 1220.693 -448.4205 
-2350.940 1251.674 -459.8690 
-2292.043 1251.382 -471.3175 
-2339.492 1251.693 -400.9713 
-2328.043 1253.490 -342.0738 
-2434.390 1229.969 -260.2791 
-2375.492 1249.464 -271.7276 
-2316.595 1252.381 -283.1761 
-2422.941 1240.636 -201.3815 
-2364.044 1249.982 -212.8300 
-2352.595 1253.583 -153.9324 
-2413.348 2.206305e-14 162.4250 
-2415.112 60.00000 153.3482 
-2413.383 120.0000 162.2450 
-2414.744 180.0000 155.2412 
-2417.981 300.0000 138.5880 
-2422.633 480.0000 114.6547 
-2347.405 600.0000 150.6738 
-2347.837 660.0000 150.7578 
-2349.346 720.0000 151.0511 
-2349.726 780.0000 151.1249 
-2350.590 840.0000 151.2928 
-2351.256 900.0000 151.4224 
-2274.252 780.0000 197.5773 
-2274.531 840.0000 197.6316 
-2275.031 900.0000 197.7286 
-2215.663 960.0000 186.1888 
-2225.007 951.8969 188.0049 
-2422.664 540.0000 114.4977 
-2424.233 600.0000 106.4241 
-2355.581 600.0000 145.1597 
-2424.005 660.0000 107.5967 
-2355.497 660.0000 145.5915 
-2418.562 720.0000 135.6004 
-2355.204 720.0000 147.1001 
-2418.989 780.0000 133.4026 
-2355.130 780.0000 147.4804 
-2419.593 840.0000 130.2985 
-2354.962 840.0000 148.3442 
-2355.038 900.0000 147.9530 
-2285.780 780.0000 189.8012 
-2285.726 840.0000 190.0809 
-2285.629 900.0000 190.5798 
-2226.914 960.0000 178.1943 
-2225.007 971.9930 188.0049 
-2270.363 1260.000 -720.0237 
-2321.795 1260.000 -648.9033 
-2416.144 1260.000 -569.4408 
-2396.734 1210.700 -695.4595 
-2337.837 1242.917 -706.9081 
-2278.939 1250.229 -718.3566 
-2220.042 1302.253 -729.8051 
-2326.388 1255.062 -648.0104 
-2267.490 1303.972 -659.4590 
-2432.735 1256.944 -566.2158 
-2373.837 1265.802 -577.6642 
-2314.940 1286.251 -589.1128 
-2256.042 1302.170 -600.5613 
-2346.689 1020.000 -752.4507 
-2345.658 1080.000 -747.1420 
-2403.681 1140.000 -731.1987 
-2345.537 1140.000 -746.5216 
-2397.885 1200.000 -701.3778 
-2343.201 1200.000 -734.5016 
-2277.376 1260.000 -710.3161 
-2376.487 1260.000 -591.2942 
-2322.073 1260.000 -625.8080 
-2371.297 1260.000 -564.5959 
-2308.951 1260.000 -558.3028 
-2412.120 2.926211e-14 163.2531 
-2404.377 60.00000 161.7480 
-2412.113 120.0000 163.2516 
-2354.098 180.0000 151.9747 
-2331.291 1.454599e-14 208.6646 
-2354.250 179.8448 152.0043 
-2354.280 180.0000 151.8517 
-2354.592 240.0000 150.2471 
-2354.517 300.0000 150.6350 
-2345.060 -5.318791e-14 199.2840 
-2344.633 60.00000 201.4794 
-2344.505 120.0000 202.1389 
-2306.011 120.0000 -774.2174 
-2214.789 180.0000 -791.9492 
-2290.388 109.9333 -777.2543 
-2290.388 131.8801 -777.2543 
-2347.123 -1.005488e-14 -754.6819 
-2287.729 -3.948262e-15 -763.5792 
-2347.082 60.00000 -754.4699 
-2287.941 60.00000 -764.6678 
-2405.670 120.0000 -741.4272 
-2347.212 120.0000 -755.1403 
-2347.005 180.0000 -754.0742 
-2288.317 180.0000 -766.6036 
-2229.019 180.0000 -775.9887 
-2287.974 240.0000 -764.8356 
-2345.616 300.0000 -746.9280 
-2287.873 300.0000 -764.3174 
-2399.510 360.0000 -709.7393 
-2346.902 360.0000 -753.5452 
-2287.676 360.0000 -763.3015 
-2228.938 360.0000 -775.5715 
-2287.222 420.0000 -760.9672 
-2334.032 1260.000 -524.2787 
-2354.102 1320.000 -520.3774 
-2347.908 1380.000 -521.5815 
-2355.944 1440.000 -520.0193 
-2356.845 1260.000 -458.7213 
-2361.247 1320.000 -457.8657 
-2347.537 1380.000 -460.5305 
-2364.034 1440.000 -457.3238 
-2366.604 1260.000 -395.7012 
-2370.059 1320.000 -395.0298 
-2351.417 1380.000 -398.6534 
-2367.748 1440.000 -395.4789 
-2406.601 1260.000 -326.8037 
-2365.063 1320.000 -334.8778 
-2354.048 1380.000 -337.0189 
-2365.644 1440.000 -334.7650 
-2396.381 1260.000 -267.6672 
-2365.769 1320.000 -273.6176 
-2349.285 1380.000 -276.8218 
-2361.446 1440.000 -274.4579 
-2376.692 1260.000 -210.3714 
-2354.467 1320.000 -214.6915 
-2344.549 1380.000 -216.6195 
-2345.828 1440.000 -216.3709 
-2371.025 1260.000 -150.3499 
-2351.918 1320.000 -154.0640 
-2349.817 1380.000 -154.4724 
-2340.210 1440.000 -156.3398 
-2372.551 1260.000 -88.93038 
-2356.387 1320.000 -92.07240 
-2340.296 1380.000 -95.20014 
-2330.817 1440.000 -97.04263 
-2384.681 1260.000 -25.44950 
-2375.616 1320.000 -27.21161 
-2354.761 1380.000 -31.26534 
-2348.460 1440.000 -32.49013 
-2421.286 1252.389 -507.3181 
-2362.389 1257.434 -518.7667 
-2409.838 1254.707 -448.4205 
-2350.940 1362.202 -459.8690 
-2350.940 1393.936 -459.8690 
-2398.389 1256.633 -389.5229 
-2386.941 1286.583 -330.6252 
-2434.390 1255.926 -260.2791 
-2375.492 1300.127 -271.7276 
-2422.941 1251.872 -201.3815 
-2364.044 1292.327 -212.8300 
-2411.493 1255.495 -142.4839 
-2352.595 1318.054 -153.9324 
-2400.044 1256.699 -83.58622 
-2341.147 1377.017 -95.03474 
-2388.596 1259.208 -24.68855 
-2353.299 1260.000 -472.0037 
-2358.057 1320.000 -496.4835 
-2358.481 1440.000 -498.6655 
-2348.039 1380.000 -444.9435 
-2391.106 1260.000 -352.0535 
-2352.194 1320.000 -151.8672 
-2340.707 1380.000 -92.76930 
-2336.990 1440.000 -73.64675 
-2357.626 -1.814627e-14 -1986.645 
-2360.432 60.00000 -1986.099 
-2359.915 120.0000 -1986.200 
-2355.756 180.0000 -1987.008 
-2354.624 240.0000 -1987.228 
-2355.914 300.0000 -1986.977 
-2356.617 360.0000 -1986.841 
-2353.891 420.0000 -1987.371 
-2357.617 -3.426270e-14 -1925.523 
-2359.156 60.00000 -1925.224 
-2358.479 120.0000 -1925.355 
-2357.120 180.0000 -1925.620 
-2356.225 240.0000 -1925.794 
-2354.980 300.0000 -1926.036 
-2355.691 360.0000 -1925.898 
-2357.087 420.0000 -1925.626 
-2339.510 480.0000 -1929.043 
-2358.183 -2.071699e-14 -1864.290 
-2356.547 60.00000 -1864.608 
-2357.635 120.0000 -1864.397 
-2358.585 180.0000 -1864.212 
-2355.160 240.0000 -1864.878 
-2354.780 300.0000 -1864.952 
-2355.944 360.0000 -1864.725 
-2356.750 420.0000 -1864.569 
-2339.379 480.0000 -1867.945 
-2356.476 2.752920e-14 -1803.499 
-2357.766 60.00000 -1803.248 
-2357.201 120.0000 -1803.358 
-2356.956 180.0000 -1803.406 
-2357.702 240.0000 -1803.261 
-2351.221 300.0000 -1804.521 
-2352.446 360.0000 -1804.282 
-2354.415 420.0000 -1803.900 
-2342.770 480.0000 -1806.163 
-2359.098 -1.405787e-15 -1741.866 
-2352.675 60.00000 -1743.115 
-2355.891 120.0000 -1742.490 
-2354.101 180.0000 -1742.838 
-2354.882 240.0000 -1742.686 
-2350.721 300.0000 -1743.495 
-2352.493 360.0000 -1743.150 
-2353.498 420.0000 -1742.955 
-2341.116 480.0000 -1745.362 
-2359.483 -4.108432e-14 -1680.669 
-2352.888 60.00000 -1681.950 
-2353.350 120.0000 -1681.860 
-2354.513 180.0000 -1681.635 
-2354.374 240.0000 -1681.661 
-2352.155 300.0000 -1682.093 
-2352.188 360.0000 -1682.086 
-2351.144 420.0000 -1682.289 
-2340.419 480.0000 -1684.374 
-2358.507 -4.164316e-14 -1619.735 
-2356.309 60.00000 -1620.162 
-2353.562 120.0000 -1620.696 
-2353.238 180.0000 -1620.760 
-2352.173 240.0000 -1620.966 
-2352.320 300.0000 -1620.938 
-2351.708 360.0000 -1621.057 
-2349.993 420.0000 -1621.390 
-2340.024 480.0000 -1623.328 
-2357.828 5.030366e-15 -1558.744 
-2356.796 60.00000 -1558.945 
-2354.901 120.0000 -1559.313 
-2352.280 180.0000 -1559.823 
-2353.126 240.0000 -1559.658 
-2352.791 300.0000 -1559.723 
-2354.526 360.0000 -1559.386 
-2349.355 420.0000 -1560.391 
-2339.421 480.0000 -1562.322 
-2344.827 -9.644265e-15 -1500.148 
-2345.965 60.00000 -1499.927 
-2346.013 120.0000 -1499.918 
-2343.801 180.0000 -1500.348 
-2342.125 240.0000 -1500.674 
-2341.636 300.0000 -1500.769 
-2341.274 360.0000 -1500.839 
-2337.904 420.0000 -1501.494 
-2339.623 480.0000 -1501.160 
-2342.665 472.8830 -1989.553 
-2355.769 32.50000 -1742.514 
-2355.769 117.7500 -1742.514 
-2355.769 124.2353 -1742.514 
-2344.320 458.5799 -1683.616 
-2340.813 480.0000 -1980.023 
-2358.400 4.613839e-14 -1756.048 
-2355.912 120.0000 -1743.248 
-2352.581 60.00000 -1726.111 
-2354.188 180.0000 -1734.379 
-2354.820 240.0000 -1737.633 
-2351.005 300.0000 -1718.003 
-2352.304 360.0000 -1724.686 
-2352.487 420.0000 -1725.630 
-2340.249 480.0000 -1662.672 
-2351.277 -4.811766e-14 -2033.855 
-2353.278 60.00000 -2044.150 
-2351.000 120.0000 -2032.434 
-2350.835 180.0000 -2031.584 
-2350.245 240.0000 -2028.546 
-2350.747 300.0000 -2031.127 
-2351.399 360.0000 -2034.486 
-2349.562 420.0000 -2025.036 
-569.0457 1980.000 -928.4799 
-745.9457 1979.048 -1321.955 
-687.0481 1979.470 -1333.404 
-628.1505 1978.510 -1344.852 
-569.2528 1979.657 -1356.301 
-510.3552 1976.592 -1367.749 
-451.4576 1972.185 -1379.198 
-392.5599 1975.757 -1390.646 
-333.6623 1975.692 -1402.095 
-274.7646 1974.206 -1413.543 
-734.4971 1979.742 -1263.057 
-675.5995 1978.374 -1274.506 
-616.7019 1977.500 -1285.954 
-557.8043 1977.524 -1297.403 
-498.9066 1977.450 -1308.851 
-440.0090 1975.883 -1320.300 
-381.1114 1974.839 -1331.749 
-322.2137 1973.061 -1343.197 
-263.3161 1971.952 -1354.646 
-723.0486 1978.337 -1204.160 
-664.1510 1978.944 -1215.608 
-605.2534 1978.132 -1227.057 
-546.3558 1973.915 -1238.505 
-487.4581 1975.027 -1249.954 
-428.5605 1971.485 -1261.402 
-369.6628 1972.084 -1272.851 
-310.7652 1973.235 -1284.299 
-251.8676 1972.118 -1295.748 
-711.6001 1974.332 -1145.262 
-652.7025 1973.885 -1156.711 
-593.8049 1973.547 -1168.159 
-534.9072 1971.368 -1179.608 
-476.0096 1975.924 -1191.056 
-417.1119 1974.485 -1202.505 
-358.2143 1973.879 -1213.953 
-299.3167 1974.339 -1225.402 
-240.4191 1970.500 -1236.850 
-700.1516 1974.649 -1086.365 
-641.2540 1975.407 -1097.813 
-582.3563 1975.356 -1109.262 
-523.4587 1974.050 -1120.710 
-464.5610 1974.385 -1132.159 
-405.6635 1974.573 -1143.607 
-346.7658 1974.026 -1155.056 
-287.8682 1973.817 -1166.504 
-228.9705 1970.420 -1177.953 
-688.7030 1977.439 -1027.467 
-629.8054 1976.768 -1038.915 
-570.9078 1976.295 -1050.364 
-512.0102 1975.706 -1061.812 
-453.1125 1975.209 -1073.261 
-394.2149 1974.666 -1084.709 
-335.3173 1974.377 -1096.158 
-276.4196 1973.775 -1107.606 
-217.5220 1968.173 -1119.055 
-677.2546 1977.225 -968.5693 
-618.3569 1976.465 -980.0178 
-559.4593 1975.631 -991.4662 
-500.5616 1975.467 -1002.915 
-441.6640 1975.349 -1014.363 
-382.7664 1974.126 -1025.812 
-323.8687 1974.482 -1037.260 
-264.9711 1973.701 -1048.709 
-206.0735 1969.644 -1060.157 
-548.0107 1978.850 -932.5686 
-489.1131 1978.410 -944.0172 
-430.2155 1977.785 -955.4656 
-371.3178 1974.222 -966.9142 
-312.4202 1973.980 -978.3627 
-253.5226 1973.508 -989.8112 
-194.6250 1970.607 -1001.260 
-665.8060 1982.424 -909.6715 
-606.9084 1981.845 -921.1201 
-654.3575 1972.411 -850.7739 
-595.4598 1970.624 -862.2224 
-536.5622 1969.940 -873.6710 
-477.6646 1970.420 -885.1194 
-418.7669 1970.029 -896.5679 
-359.8693 1968.756 -908.0165 
-300.9717 1969.657 -919.4650 
-242.0740 1969.501 -930.9135 
-183.1764 1970.757 -942.3621 
-671.0410 1980.000 -936.6035 
-610.9970 1980.000 -942.1544 
-663.1255 1980.000 -895.8817 
-604.9495 1980.000 -911.0427 
-2344.212 -3.883681e-14 -1439.145 
-2345.751 60.00000 -1438.846 
