ply
format ascii 1.0
comment FreeCAD generated
obj_info Generated by CloudCompare!
element vertex 1285
property float x
property float y
property float z
end_header
3891.068115 1560.000000 -206.239197 
3889.393066 1620.000000 -205.913406 
3887.802002 1680.000000 -205.604095 
3888.144043 1740.000000 -205.670700 
3888.120117 1800.000000 -205.666000 
3891.128906 1440.000000 -145.128006 
3892.467041 1500.000000 -145.388000 
3891.902100 1560.000000 -145.278107 
3892.100098 1620.000000 -145.316696 
3891.900879 1680.000000 -145.277893 
3889.404053 1740.000000 -144.792496 
3888.035889 1800.000000 -144.526703 
3891.839111 1440.000000 -103.058899 
3892.448975 1500.000000 -99.922157 
3891.364990 1560.000000 -105.499496 
3891.621094 1620.000000 -104.180801 
3892.167969 1680.000000 -101.366302 
3891.718994 1740.000000 -103.679100 
3888.836914 1800.000000 -118.507004 
3885.344971 1380.000000 -266.249603 
3887.912109 1380.000000 -205.625504 
3887.218994 1380.000000 -144.367996 
3861.037109 1335.675049 -261.524597 
3872.485107 1344.807007 -202.626907 
3883.934082 1373.100952 -143.729294 
3887.583984 1380.000000 -124.947098 
3845.750000 -0.000000 -747.537170 
3848.479004 60.000000 -748.067688 
3841.518066 120.000000 -746.714478 
3835.991943 180.000000 -745.640381 
3839.635986 240.000000 -746.348694 
3842.366943 300.000000 -746.879517 
3829.937988 360.000000 -744.463684 
3832.210938 420.000000 -744.905396 
3811.708008 60.000000 -679.796875 
3794.459961 120.000000 -676.444519 
3793.799072 180.000000 -676.315918 
3797.297119 240.000000 -676.995911 
3780.896973 24.462811 -673.807983 
3780.896973 282.714813 -673.807983 
3780.896973 454.500000 -673.807983 
3779.864014 0.000000 -679.121582 
3831.616943 0.000000 -727.326416 
3836.243896 60.000000 -703.522278 
3830.739014 120.000000 -731.847290 
3829.584961 180.000000 -737.779480 
3830.018066 240.000000 -735.553894 
3779.654053 300.000000 -680.202881 
3830.077881 300.000000 -735.244629 
3780.863037 360.000000 -673.984802 
3829.227051 360.000000 -739.623718 
3780.770996 420.000000 -674.455627 
3829.000000 420.000000 -740.793396 
3782.445068 60.000000 -665.846375 
3782.768066 120.000000 -664.185425 
3782.795898 180.000000 -664.038879 
3783.277100 240.000000 -661.564880 
3873.399902 1020.000000 -752.911804 
3874.486084 1080.000000 -753.122803 
3876.468018 1140.000000 -753.508118 
3877.204102 1200.000000 -753.651123 
3877.938965 1260.000000 -753.794128 
3878.665039 1320.000000 -753.935120 
3878.162109 1380.000000 -753.837402 
3849.983887 1020.000000 -687.237122 
3853.781006 1080.000000 -687.975220 
3839.302979 1140.000000 -685.160889 
3823.917969 1200.000000 -682.170410 
3853.649902 1260.000000 -687.949829 
3884.259033 1320.000000 -693.899475 
3879.980957 1380.000000 -693.067871 
3832.125000 1320.000000 -622.642822 
3879.802002 1380.000000 -631.910095 
3836.736084 1320.000000 -562.416016 
3876.805908 1380.000000 -570.204895 
3853.654053 1320.000000 -504.581512 
3883.467041 1380.000000 -510.376587 
3847.775879 1320.000000 -442.316101 
3887.053955 1380.000000 -449.950897 
3843.707031 1320.000000 -380.401886 
3881.222900 1380.000000 -387.694397 
3853.465088 1320.000000 -321.175812 
3883.562988 1380.000000 -327.026306 
3839.794922 1009.471008 -685.256592 
3839.794922 1137.328979 -685.256592 
3839.794922 1245.749023 -685.256592 
3792.344971 1286.124023 -614.910400 
3851.242920 1353.850952 -626.359009 
3803.793945 1286.777954 -556.012817 
3862.691895 1365.159058 -567.461304 
3815.242920 1294.879028 -497.115112 
3874.139893 1365.199951 -508.563690 
3826.690918 1306.730957 -438.217499 
3885.589111 1376.583984 -449.665985 
3885.589111 1427.225952 -449.665985 
3838.139893 1316.553955 -379.319885 
3839.717041 1140.000000 -685.656006 
3836.447998 1200.000000 -702.476685 
3785.455078 1020.000000 -650.360901 
3840.479004 1020.000000 -681.734985 
3785.600098 1080.000000 -649.615295 
3840.501953 1080.000000 -681.619324 
3785.701904 1140.000000 -649.089294 
3786.979980 1200.000000 -642.511414 
3786.735107 1260.000000 -643.771729 
3840.479004 1260.000000 -681.735779 
3845.950928 1320.000000 -653.584473 
3887.064941 1380.000000 -442.070404 
3852.967041 1320.000000 -303.040985 
-2324.823975 -480.000000 1918.850952 
-2323.427979 -420.000000 1918.579956 
-2323.230957 -360.000000 1918.541992 
-2321.045898 -300.000000 1918.116943 
-2321.154053 -240.000000 1918.137939 
-2295.222900 -180.000000 1913.098022 
-2322.028076 -120.000000 1918.307983 
-2321.103027 -60.000000 1918.128052 
-2295.771973 -0.000000 1913.203979 
-2319.884033 -480.000000 1979.014038 
-2325.364990 -420.000000 1980.079956 
-2324.365967 -360.000000 1979.885010 
-2322.517090 -300.000000 1979.526001 
-2323.472900 -240.000000 1979.712036 
-2320.007080 -180.000000 1979.037964 
-2318.436035 -120.000000 1978.733032 
-2321.379883 -60.000000 1979.305054 
-2318.258057 0.000000 1978.697998 
-2083.555908 -480.000000 1994.199951 
-2091.458008 -420.000000 1995.735962 
-2091.406006 -360.000000 1995.724976 
-2084.497070 -300.000000 1994.383057 
-2089.562012 -240.000000 1995.366943 
-2096.031006 -180.000000 1996.625000 
-2121.492920 -120.000000 2001.573975 
-2090.642090 -60.000000 1995.577026 
-2107.849121 -0.000000 1998.921997 
-2316.730957 -233.617706 1917.277954 
-2316.730957 -127.777802 1917.277954 
-2316.730957 -53.095520 1917.277954 
-2117.141113 -133.860794 2000.728027 
-2117.141113 -112.275101 2000.728027 
-2308.323975 -180.000000 1960.531006 
-2308.125000 0.000000 1961.552979 
-2301.677979 -480.000000 1994.720947 
-2240.034912 -480.000000 1997.396973 
-2178.770020 -480.000000 1998.130005 
-2118.510986 -480.000000 1993.682007 
-2301.329102 -420.000000 1996.516968 
-2239.847900 -420.000000 1998.357056 
-2179.017090 -420.000000 1996.857056 
-2118.386963 -420.000000 1994.319946 
-2301.812012 -360.000000 1994.034058 
-2239.599121 -360.000000 1999.637939 
-2179.087891 -360.000000 1996.490967 
-2118.477051 -360.000000 1993.859009 
-2301.995117 -300.000000 1993.088013 
-2239.155029 -300.000000 2001.922974 
-2179.220947 -300.000000 1995.805054 
-2119.093018 -300.000000 1990.687012 
-2301.618896 -240.000000 1995.022949 
-2238.281982 -240.000000 2006.416016 
-2178.731934 -240.000000 1998.323975 
-2118.635986 -240.000000 1993.037964 
-2302.528076 -180.000000 1990.348999 
-2238.909912 -180.000000 2003.182007 
-2178.482910 -180.000000 1999.604004 
-2117.979980 -180.000000 1996.411987 
-2303.371094 -120.000000 1986.011963 
-2238.065918 -120.000000 2007.526001 
-2178.845947 -120.000000 1997.735962 
-2302.698975 -60.000000 1989.468994 
-2239.014893 -60.000000 2002.641968 
-2178.514893 -60.000000 1999.439941 
-2118.790039 -60.000000 1992.248047 
-2303.500000 0.000000 1985.348022 
-2238.654053 0.000000 2004.503052 
-2178.539062 -0.000000 1999.312988 
-2117.625000 -0.000000 1998.241943 
-2057.291992 -480.000000 1994.176025 
-2056.724121 -420.000000 1997.095947 
-2056.730957 -360.000000 1997.060059 
-2056.675049 -300.000000 1997.348999 
-2056.591064 -240.000000 1997.782959 
-2056.749023 -180.000000 1996.968994 
-2116.849121 -120.000000 2002.232056 
-2056.136963 -120.000000 2000.119019 
-2056.104980 -60.000000 2000.282959 
-2056.002930 0.000000 2000.806030 
-2341.385010 -660.000000 1433.087036 
-2332.761963 -600.000000 1431.410034 
-2336.326904 -540.000000 1432.103027 
-2337.925049 -480.000000 1432.413940 
-2335.683105 -660.000000 1493.100952 
-2337.906982 -600.000000 1493.534058 
-2334.909912 -540.000000 1492.951050 
-2337.631104 -480.000000 1493.479980 
-2334.227051 -660.000000 1553.941040 
-2344.166016 -600.000000 1555.873047 
-2341.094971 -540.000000 1555.276001 
-2334.358887 -480.000000 1553.967041 
-2334.293945 -660.000000 1615.077026 
-2339.623047 -600.000000 1616.113037 
-2336.041016 -540.000000 1615.416992 
-2339.392090 -480.000000 1616.067993 
-2333.818115 -660.000000 1676.108032 
-2321.601074 -600.000000 1673.733032 
-2325.172119 -540.000000 1674.427002 
-2326.555908 -480.000000 1674.696045 
-2328.313965 -660.000000 1736.161011 
-2330.188965 -600.000000 1736.525024 
-2333.094971 -540.000000 1737.089966 
-2330.021973 -480.000000 1736.493042 
-2325.080078 -660.000000 1796.655029 
-2330.641113 -600.000000 1797.735962 
-2331.961914 -540.000000 1797.993042 
-2326.277100 -480.000000 1796.887939 
-2332.849121 -660.000000 1859.287964 
-2333.937988 -600.000000 1859.500000 
-2327.708984 -540.000000 1858.288940 
-2322.333008 -480.000000 1857.244019 
-2332.041992 -660.000000 1920.255005 
-2337.360107 -600.000000 1921.287964 
-2327.524902 -540.000000 1919.376953 
-2328.179932 -545.043518 1858.380981 
-2334.531006 -660.000000 1511.256958 
-2337.922119 -600.000000 1493.811035 
-2335.960938 -540.000000 1503.897949 
-2337.247070 -480.000000 1497.284058 
-2331.153076 -660.000000 1843.083984 
-2332.466064 -600.000000 1836.328003 
-2327.759033 -540.000000 1860.545044 
-2323.966064 -480.000000 1880.062012 
-2325.791992 -660.000000 1980.162964 
-2324.291016 -600.000000 1979.870972 
-2323.147949 -540.000000 1979.649048 
-2088.449951 -660.000000 1995.151001 
-2080.739014 -600.000000 1993.651978 
-2081.967041 -540.000000 1993.890991 
-2301.587891 -660.000000 1995.183960 
-2238.673096 -660.000000 2004.401001 
-2178.861084 -660.000000 1997.656982 
-2118.533936 -660.000000 1993.564941 
-2301.329102 -600.000000 1996.517944 
-2239.247070 -600.000000 2001.447998 
-2178.725098 -600.000000 1998.355957 
-2119.007080 -600.000000 1991.131958 
-2301.404053 -540.000000 1996.130005 
-2238.608887 -540.000000 2004.734009 
-2178.772949 -540.000000 1998.110962 
-2118.764893 -540.000000 1992.375977 
-2056.583008 -660.000000 1997.823975 
-2056.970947 -600.000000 1995.826050 
-2056.928955 -540.000000 1996.045044 
-2348.931885 -660.000000 945.569580 
-2349.299072 -600.000000 945.640808 
-2352.375000 -540.000000 946.238770 
-2353.832031 -480.000000 946.521973 
-2345.266113 -660.000000 1005.979980 
-2348.379883 -600.000000 1006.585022 
-2346.752930 -540.000000 1006.268982 
-2352.678955 -480.000000 1007.421021 
-2340.048096 -660.000000 1066.088989 
-2342.955078 -600.000000 1066.654053 
-2345.103027 -540.000000 1067.071045 
-2337.305908 -480.000000 1065.556030 
-2347.506104 -660.000000 1128.661011 
-2347.263916 -600.000000 1128.614990 
-2338.892090 -540.000000 1126.987061 
-2341.346924 -480.000000 1127.463989 
-2350.096924 -660.000000 1190.287964 
-2341.710938 -600.000000 1188.657959 
-2344.072998 -540.000000 1189.116943 
-2338.110107 -480.000000 1187.958008 
-2344.400879 -660.000000 1250.303955 
-2351.120117 -600.000000 1251.609985 
-2343.443115 -540.000000 1250.118042 
-2334.736084 -480.000000 1248.425049 
-2343.022949 -660.000000 1311.159058 
-2348.986084 -600.000000 1312.317993 
-2338.669922 -540.000000 1310.312988 
-2340.873047 -480.000000 1310.740967 
-2335.758057 -660.000000 1370.869995 
-2339.574951 -600.000000 1371.612061 
-2342.697021 -540.000000 1372.218018 
-2332.875977 -480.000000 1370.310059 
-2347.767090 -663.724121 1128.712036 
-2347.583984 -660.000000 1129.650024 
-2346.548096 -600.000000 1134.984009 
-2340.243896 -540.000000 1167.413940 
-2338.004883 -480.000000 1178.932983 
-2346.327881 -660.000000 700.571411 
-2319.287109 -480.000000 695.315186 
-2331.207031 -660.000000 758.755127 
-2346.129883 -600.000000 761.655884 
-2315.185059 -540.000000 755.640930 
-2319.073975 -480.000000 756.396729 
-2340.354980 -660.000000 821.656494 
-2339.676025 -600.000000 821.524414 
-2328.187012 -540.000000 819.291199 
-2330.560059 -480.000000 819.752380 
-2320.388916 -660.000000 878.898376 
-2319.114014 -600.000000 878.650574 
-2319.339111 -540.000000 878.694275 
-2326.903076 -480.000000 880.164490 
-2310.111084 -604.054688 693.531616 
-2310.111084 -538.982971 693.531616 
-2317.531982 -660.000000 655.357483 
-2314.896973 -480.000000 668.911316 
-2309.683105 -600.000000 695.732727 
-2310.069092 -540.000000 693.750977 
-2329.863037 -660.000000 906.370178 
-2328.422119 -600.000000 913.781372 
-2328.888916 -540.000000 911.380310 
-2331.044922 -480.000000 900.287170 
-1768.395996 -660.000000 1994.062012 
-1744.814941 -600.000000 1989.478027 
-1744.662964 -540.000000 1989.448975 
-1783.517944 -480.000000 1997.000977 
-1664.843994 -660.000000 2035.056030 
-1666.121948 -600.000000 2035.305054 
-1662.623047 -540.000000 2034.625000 
-1669.173950 -480.000000 2035.897949 
-1647.123047 -660.000000 2092.735107 
-1650.875000 -600.000000 2093.464111 
-1654.036987 -540.000000 2094.079102 
-1654.209961 -480.000000 2094.113037 
-1637.217041 -660.000000 2151.931885 
-1642.100952 -600.000000 2152.882080 
-1643.881958 -540.000000 2153.228027 
-1641.895996 -480.000000 2152.842041 
-1647.120972 -660.000000 2214.979980 
-1643.814941 -600.000000 2214.337891 
-1633.260986 -540.000000 2212.285889 
-1649.743042 -480.000000 2215.489990 
-1655.436035 -660.000000 2277.719971 
-1647.906982 -600.000000 2276.256104 
-1642.728027 -540.000000 2275.250000 
-1641.066040 -480.000000 2274.927002 
-1752.307007 -616.031677 1990.933960 
-1752.307007 -526.866089 1990.933960 
-1647.614990 -485.001495 2215.076904 
-1995.843994 -660.000000 1995.848999 
-1934.795044 -660.000000 1995.465942 
-1874.343994 -660.000000 1992.011963 
-1813.161011 -660.000000 1992.316040 
-1996.026001 -600.000000 1994.912964 
-1934.938965 -600.000000 1994.724976 
-1874.307007 -600.000000 1992.202026 
-1813.344971 -600.000000 1991.369995 
-1752.631958 -600.000000 1989.260986 
-1995.995972 -540.000000 1995.064941 
-1934.788940 -540.000000 1995.496948 
-1873.932983 -540.000000 1994.120972 
-1812.890991 -540.000000 1993.709961 
-1752.776001 -540.000000 1988.524048 
-1995.500000 -480.000000 1997.619019 
-1934.628052 -480.000000 1996.323975 
-1873.484985 -480.000000 1996.427002 
-1812.265991 -480.000000 1996.921997 
-1751.395020 -660.000000 1995.628052 
-1690.349976 -660.000000 1995.223022 
-1691.438965 -600.000000 1989.620972 
-1690.812012 -540.000000 1992.848022 
-1750.951050 -480.000000 1997.911987 
-1689.743042 -480.000000 1998.345947 
-1648.265015 -480.000000 2211.731934 
-1647.222046 -660.000000 2217.100098 
-1643.357056 -600.000000 2236.981934 
-1638.048950 -540.000000 2264.289062 
-2339.210938 -420.000000 1432.663940 
-2337.308105 -360.000000 1432.293945 
-2323.830078 -300.000000 1429.673950 
-2339.440918 -240.000000 1432.708984 
-2326.060059 -180.000000 1430.108032 
-2325.642090 -120.000000 1430.026001 
-2326.989990 -60.000000 1430.287964 
-2323.577881 0.000000 1429.625000 
-2341.656982 -420.000000 1494.261963 
-2330.446045 -360.000000 1492.083008 
-2326.860107 -300.000000 1491.385986 
-2327.157959 -240.000000 1491.443970 
-2308.972900 -180.000000 1487.909058 
-2307.362061 -120.000000 1487.595947 
-2309.722900 -60.000000 1488.055054 
-2306.514893 0.000000 1487.432007 
-2339.592041 -420.000000 1554.984009 
-2323.907959 -360.000000 1551.935059 
-2323.708008 -300.000000 1551.896973 
-2323.555908 -240.000000 1551.866943 
-2303.049072 -180.000000 1547.880981 
-2301.775879 -120.000000 1547.633057 
-2302.293945 -60.000000 1547.734009 
-2305.087891 0.000000 1548.276978 
-2337.298096 -420.000000 1615.661011 
-2339.886963 -360.000000 1616.163940 
-2322.851074 -300.000000 1612.853027 
-2310.981934 -240.000000 1610.546021 
-2319.198975 -180.000000 1612.142944 
-2295.615967 -120.000000 1607.558960 
-2297.950928 -60.000000 1608.012939 
-2297.194092 0.000000 1607.865967 
-2321.218018 -420.000000 1673.657959 
-2336.028076 -360.000000 1676.536987 
-2322.507080 -300.000000 1673.909058 
-2310.562988 -240.000000 1671.587036 
-2317.239014 -180.000000 1672.885010 
-2318.256104 -120.000000 1673.083008 
-2306.540039 -60.000000 1670.806030 
-2314.899902 0.000000 1672.430054 
-2324.922119 -420.000000 1735.501953 
-2332.166016 -360.000000 1736.910034 
-2328.425049 -300.000000 1736.182007 
-2321.572998 -240.000000 1734.850952 
-2316.910889 -180.000000 1733.943970 
-2317.004883 -120.000000 1733.963013 
-2319.048096 -60.000000 1734.359985 
-2318.262939 0.000000 1734.207031 
-2330.637939 -420.000000 1797.734985 
-2331.530029 -360.000000 1797.909058 
-2306.020020 -300.000000 1792.949951 
-2322.792969 -240.000000 1796.211060 
-2321.821045 -180.000000 1796.021973 
-2315.885010 -120.000000 1794.868042 
-2318.654053 -60.000000 1795.406006 
-2317.989990 -0.000000 1795.276978 
-2324.417969 -420.000000 1857.650024 
-2324.527100 -360.000000 1857.671021 
-2323.511963 -300.000000 1857.473022 
-2300.269043 -240.000000 1852.954956 
-2320.689941 -180.000000 1856.925049 
-2319.634033 -120.000000 1856.719971 
-2300.208008 -60.000000 1852.943970 
-2302.926025 0.000000 1853.472046 
-2295.771973 -0.000000 1913.203979 
-2337.972900 -473.172394 1493.546021 
-2337.972900 -402.674103 1493.546021 
-2326.524902 -366.916412 1552.443970 
-2315.075928 -270.290497 1611.342041 
-2315.075928 -199.963394 1611.342041 
-2315.075928 -173.357697 1611.342041 
-2340.147949 -420.000000 1482.359009 
-2325.763916 -360.000000 1556.359985 
-2322.972900 -300.000000 1570.714966 
-2315.974121 -180.000000 1606.720947 
-2308.303955 -240.000000 1646.182983 
-2307.135986 -120.000000 1652.189941 
-2304.531982 -60.000000 1665.583008 
-2306.472900 -0.000000 1655.598022 
-2324.033936 -420.000000 1879.708008 
-2323.157959 -360.000000 1884.215942 
-2321.902100 -300.000000 1890.678955 
-2317.688965 -240.000000 1912.350952 
-2321.184082 -120.000000 1894.374023 
-2317.660889 -60.000000 1912.495972 
-2345.893066 -420.000000 944.978882 
-2340.113037 -360.000000 943.855225 
-2345.293945 -300.000000 944.862488 
-2330.123047 -240.000000 941.913391 
-2314.360107 -180.000000 938.849487 
-2310.508057 -120.000000 938.100586 
-2311.288086 -60.000000 938.252319 
-2312.237061 0.000000 938.436829 
-2344.783936 -420.000000 1005.885986 
-2344.698975 -360.000000 1005.869995 
-2343.739990 -300.000000 1005.682983 
-2344.503906 -240.000000 1005.831970 
-2322.261963 -180.000000 1001.507996 
-2317.093018 -120.000000 1000.504028 
-2313.112061 -60.000000 999.729919 
-2313.663086 0.000000 999.836975 
-2336.740967 -420.000000 1065.446045 
-2338.239990 -360.000000 1065.737061 
-2342.474121 -300.000000 1066.560059 
-2331.888916 -240.000000 1064.503052 
-2327.702881 -180.000000 1063.688965 
-2314.780029 -120.000000 1061.177002 
-2320.290039 -60.000000 1062.248047 
-2320.790039 -0.000000 1062.344971 
-2338.710938 -420.000000 1126.952026 
-2333.417969 -360.000000 1125.922974 
-2330.740967 -300.000000 1125.402954 
-2329.240967 -240.000000 1125.110962 
-2318.189941 -180.000000 1122.963013 
-2311.649902 -120.000000 1121.692017 
-2310.836914 -60.000000 1121.534058 
-2310.700928 0.000000 1121.506958 
-2330.583008 -420.000000 1186.494995 
-2332.846924 -360.000000 1186.935059 
-2335.139893 -300.000000 1187.380981 
-2325.469971 -240.000000 1185.500977 
-2310.909912 -180.000000 1182.671021 
-2310.645996 -120.000000 1182.619995 
-2312.731934 -60.000000 1183.025024 
-2310.721924 0.000000 1182.635010 
-2341.617920 -420.000000 1249.762939 
-2343.519043 -360.000000 1250.131958 
-2331.813965 -300.000000 1247.857056 
-2315.575928 -240.000000 1244.701050 
-2313.528076 -180.000000 1244.302979 
-2311.406006 -120.000000 1243.890015 
-2311.916016 -60.000000 1243.989014 
-2313.330078 0.000000 1244.264038 
-2346.843994 -420.000000 1311.901978 
-2340.318115 -360.000000 1310.633057 
-2330.313965 -300.000000 1308.688965 
-2309.339111 -240.000000 1304.610962 
-2310.449951 -180.000000 1304.827026 
-2308.237061 -120.000000 1304.396973 
-2312.556885 -60.000000 1305.237061 
-2311.093018 0.000000 1304.952026 
-2334.135010 -420.000000 1370.553955 
-2340.416992 -360.000000 1371.775024 
-2344.261963 -300.000000 1372.522949 
-2333.839111 -240.000000 1370.496948 
-2301.284912 -180.000000 1364.168945 
-2315.066895 -120.000000 1366.848022 
-2311.820068 -60.000000 1366.217041 
-2309.231934 -0.000000 1365.713989 
-2323.577881 0.000000 1429.625000 
-2323.215088 -219.357803 940.570618 
-2336.318115 -472.325592 1187.609985 
-2324.870117 -287.200012 1246.506958 
-2313.420898 -263.552185 1305.405029 
-2301.972900 -182.421005 1364.302002 
-2301.972900 -172.698395 1364.302002 
-2316.593018 -180.000000 974.634827 
-2314.053955 -120.000000 987.700806 
-2312.489990 -60.000000 995.743530 
-2312.900879 -0.000000 993.629272 
-2331.518066 -420.000000 1212.302979 
-2333.486084 -360.000000 1202.177979 
-2333.532959 -300.000000 1201.936035 
-2310.642090 -240.000000 1319.701050 
-2307.868896 -120.000000 1333.970947 
-2311.500000 -60.000000 1315.288940 
-2308.604004 -0.000000 1330.189941 
-2301.564941 -180.000000 1366.396973 
-2332.512939 -360.000000 636.763123 
-2330.620117 -240.000000 636.395081 
-2328.047119 -180.000000 635.895020 
-2336.540039 -420.000000 698.668823 
-2329.604004 -360.000000 697.320618 
-2336.696045 -300.000000 698.698975 
-2339.211914 -240.000000 699.188110 
-2326.298096 -180.000000 696.677979 
-2319.138916 -120.000000 695.286499 
-2316.923096 -60.000000 694.855591 
-2315.529053 -0.000000 694.584717 
-2321.531982 -420.000000 756.874695 
-2322.613037 -360.000000 757.084595 
-2328.056885 -300.000000 758.143005 
-2324.794922 -240.000000 757.508728 
-2321.418945 -180.000000 756.852478 
-2317.927979 -120.000000 756.174011 
-2319.754883 -60.000000 756.529175 
-2318.252930 0.000000 756.237183 
-2332.041992 -420.000000 820.040588 
-2331.116943 -360.000000 819.860779 
-2328.475098 -300.000000 819.347229 
-2328.855957 -240.000000 819.421082 
-2325.180908 -180.000000 818.706787 
-2321.778076 -120.000000 818.045471 
-2312.937012 -60.000000 816.326782 
-2315.003906 -0.000000 816.728577 
-2326.946045 -420.000000 880.172913 
-2326.761963 -360.000000 880.137207 
-2327.979980 -300.000000 880.374023 
-2325.153076 -240.000000 879.824402 
-2322.175049 -180.000000 879.245483 
-2317.029053 -120.000000 878.245300 
-2318.643066 -60.000000 878.559021 
-2319.006104 0.000000 878.629578 
-2312.237061 0.000000 938.436829 
-2321.560059 -397.440704 634.633972 
-2321.560059 -304.626190 634.633972 
-2321.560059 -293.869995 634.633972 
-2321.560059 -132.546906 634.633972 
-2325.407959 -360.000000 614.834412 
-2324.033936 -240.000000 621.906494 
-2325.333008 -180.000000 615.220825 
-2319.423096 -420.000000 645.628174 
-2321.120117 -300.000000 636.896606 
-2319.593018 -120.000000 644.752930 
-2314.664062 -60.000000 670.110229 
-2316.215088 0.000000 662.131287 
-2329.779053 -420.000000 906.803589 
-2328.658936 -360.000000 912.562988 
-2330.732910 -300.000000 901.891174 
-2325.868896 -240.000000 926.915771 
-1501.312988 -540.000000 2338.834961 
-1499.021973 -480.000000 2350.622070 
-1788.167969 -420.000000 1997.905029 
-1785.750977 -360.000000 1997.435059 
-1790.197021 -300.000000 1998.300049 
-1789.407959 -240.000000 1998.145996 
-1795.443970 -180.000000 1999.319946 
-1777.432007 -120.000000 1995.817993 
-1780.555054 -60.000000 1996.425049 
-1794.348999 0.000000 1999.107056 
-1669.735962 -420.000000 2036.006958 
-1670.036011 -360.000000 2036.066040 
-1670.917969 -300.000000 2036.237061 
-1671.619995 -240.000000 2036.374023 
-1671.077026 -180.000000 2036.267944 
-1671.342041 -120.000000 2036.318970 
-1671.183960 -60.000000 2036.288940 
-1655.857056 -0.000000 2033.310059 
-1653.755005 -420.000000 2094.023926 
-1654.587036 -360.000000 2094.186035 
-1654.301025 -300.000000 2094.129883 
-1655.067017 -240.000000 2094.279053 
-1654.641968 -180.000000 2094.197021 
-1653.701050 -120.000000 2094.012939 
-1653.422974 -60.000000 2093.958984 
-1643.604980 -0.000000 2092.051025 
-1640.447021 -420.000000 2152.560059 
-1641.989014 -360.000000 2152.860107 
-1638.697021 -300.000000 2152.219971 
-1638.704956 -240.000000 2152.220947 
-1643.277954 -180.000000 2153.111084 
-1634.748047 -120.000000 2151.451904 
-1637.396973 -60.000000 2151.967041 
-1634.728027 -0.000000 2151.447998 
-1639.901001 -420.000000 2213.576904 
-1635.458984 -360.000000 2212.714111 
-1640.438965 -300.000000 2213.681885 
-1638.402954 -240.000000 2213.285889 
-1631.729980 -180.000000 2211.989014 
-1627.838989 -120.000000 2211.232910 
-1627.795044 -60.000000 2211.224121 
-1626.295044 -0.000000 2210.931885 
-1647.208984 -420.000000 2276.121094 
-1649.314941 -360.000000 2276.530029 
-1644.657959 -300.000000 2275.625000 
-1642.107056 -240.000000 2275.128906 
-1636.553955 -180.000000 2274.050049 
-1642.009033 -120.000000 2275.110107 
-1641.494995 -60.000000 2275.010010 
-1639.229004 -0.000000 2274.569092 
-1647.614990 -469.083710 2215.076904 
-1995.988037 -420.000000 1995.108032 
-1934.797974 -420.000000 1995.451050 
-1873.756958 -420.000000 1995.031006 
-1813.113037 -420.000000 1992.567017 
-1996.250000 -360.000000 1993.756958 
-1934.869995 -360.000000 1995.081055 
-1873.717041 -360.000000 1995.238037 
-1812.698975 -360.000000 1994.692993 
-1995.678955 -300.000000 1996.694946 
-1934.858032 -300.000000 1995.140015 
-1873.125000 -300.000000 1998.282959 
-1812.665039 -300.000000 1994.869995 
-1995.798950 -240.000000 1996.079956 
-1934.590942 -240.000000 1996.515015 
-1873.477051 -240.000000 1996.468994 
-1812.692993 -240.000000 1994.723999 
-1995.848999 -180.000000 1995.821045 
-1934.698975 -180.000000 1995.958984 
-1873.593994 -180.000000 1995.870972 
-1812.234009 -180.000000 1997.088013 
-1995.828979 -120.000000 1995.922974 
-1934.433960 -120.000000 1997.324951 
-1873.651978 -120.000000 1995.567993 
-1812.691040 -120.000000 1994.737061 
-1995.718018 -60.000000 1996.498047 
-1934.828979 -60.000000 1995.291992 
-1873.487061 -60.000000 1996.420044 
-1812.224976 -60.000000 1997.135010 
-2056.002930 0.000000 2000.806030 
-1995.740967 -0.000000 1996.375977 
-1934.879028 -0.000000 1995.035034 
-1873.119019 -0.000000 1998.312012 
-1811.823975 -0.000000 1999.197998 
-1749.901001 -420.000000 2003.313965 
-1690.516968 -420.000000 1994.364990 
-1750.536011 -360.000000 2000.045044 
-1689.987061 -360.000000 1997.090942 
-1749.907959 -300.000000 2003.276001 
-1689.365967 -300.000000 2000.286011 
-1749.842041 -240.000000 2003.615967 
-1689.053955 -240.000000 2001.892944 
-1749.659058 -180.000000 2004.557007 
-1689.041992 -180.000000 2001.953003 
-1751.228027 -120.000000 1996.487061 
-1690.270996 -120.000000 1995.630981 
-1751.352051 -60.000000 1995.845947 
-1690.125000 -60.000000 1996.380981 
-1750.767944 0.000000 1998.853027 
-1689.744019 -0.000000 1998.342041 
-1641.365967 -420.000000 2247.226074 
-1640.144043 -360.000000 2253.510010 
-1640.656982 -300.000000 2250.874023 
-1638.892944 -240.000000 2259.949951 
-1636.274048 -180.000000 2273.420898 
-1637.412964 -120.000000 2267.562012 
-1637.347046 -60.000000 2267.899902 
-1636.916992 0.000000 2270.113037 
-1330.062988 -420.000000 2336.719971 
-1297.095947 -420.000000 2391.435059 
-1109.224976 -420.000000 2354.916016 
-1311.475952 -360.000000 2394.229980 
-1110.461060 -360.000000 2355.156006 
-1277.343994 -300.000000 2387.594971 
-1101.660034 -300.000000 2353.446045 
-1285.217041 -240.000000 2389.125000 
-1319.032959 -180.000000 2395.698975 
-1334.532959 -120.000000 2398.711914 
-1346.569946 -60.000000 2401.051025 
-1366.229004 0.000000 2404.873047 
-1044.331055 -180.000000 2403.425049 
-1021.340027 -120.000000 2398.956055 
-1025.913940 -60.000000 2399.844971 
-1041.927979 -0.000000 2402.958008 
-1495.473999 -465.479309 2368.872070 
-1436.577026 -430.891388 2357.424072 
-1377.678955 -426.111694 2345.975098 
-1318.781006 -417.703400 2334.527100 
-1248.435059 -435.733704 2381.976074 
-1189.537964 -438.681091 2370.527100 
-1307.333008 -368.719696 2393.424072 
-1307.333008 -350.454498 2393.424072 
-1071.741943 -272.213806 2347.629883 
-1012.844971 -246.190506 2336.181885 
-1307.333008 -189.479401 2393.424072 
-1001.395996 -203.576797 2395.080078 
-1489.229004 -420.000000 2401.000000 
-1431.140991 -420.000000 2385.387939 
-1371.733032 -420.000000 2376.565918 
-1490.250000 -360.000000 2395.747070 
-1429.827026 -360.000000 2392.146973 
-1368.546021 -360.000000 2392.959961 
-1490.267944 -300.000000 2395.657959 
-1429.463989 -300.000000 2394.017090 
-1368.758057 -300.000000 2391.872070 
-1308.282959 -300.000000 2388.534912 
-1489.755005 -240.000000 2398.299072 
-1428.847046 -240.000000 2397.188965 
-1368.083008 -240.000000 2395.342041 
-1309.534058 -240.000000 2382.103027 
-1489.630981 -180.000000 2398.936035 
-1428.697998 -180.000000 2397.954102 
-1367.800049 -180.000000 2396.800049 
-1489.369995 -120.000000 2400.278076 
-1428.469971 -120.000000 2399.128906 
-1367.621948 -120.000000 2397.716064 
-1488.946045 -60.000000 2402.458984 
-1428.297974 -60.000000 2400.011963 
-1367.267944 -60.000000 2399.535889 
-1488.584961 -0.000000 2404.312988 
-1427.689941 -0.000000 2403.142090 
-1366.230957 0.000000 2404.871094 
-1245.009033 -420.000000 2399.601074 
-1184.735962 -420.000000 2395.229980 
-1124.698975 -420.000000 2389.644043 
-1307.162964 -360.000000 2394.300049 
-1246.484009 -360.000000 2392.012939 
-1185.099976 -360.000000 2393.358887 
-1124.765015 -360.000000 2389.304932 
-1247.524048 -300.000000 2386.663086 
-1187.034058 -300.000000 2383.407959 
-1126.363037 -300.000000 2381.083008 
-1244.817993 -240.000000 2400.583008 
-1184.066040 -240.000000 2398.676025 
-1123.402954 -240.000000 2396.308105 
-1063.744019 -240.000000 2388.780029 
-1007.919006 -240.000000 2361.521973 
-1306.932983 -180.000000 2395.482910 
-1243.465942 -180.000000 2407.539062 
-1182.675049 -180.000000 2405.833008 
-1121.784058 -180.000000 2404.641113 
-1060.821045 -180.000000 2403.819092 
-1306.177002 -120.000000 2399.373047 
-1245.187012 -120.000000 2398.685059 
-1184.170044 -120.000000 2398.144043 
-1123.062988 -120.000000 2398.060059 
-1061.859985 -120.000000 2398.471924 
-1305.387939 -60.000000 2403.430908 
-1244.482056 -60.000000 2402.312012 
-1183.555054 -60.000000 2401.303955 
-1122.607056 -60.000000 2400.406982 
-1061.409058 -60.000000 2400.790039 
-1305.140991 0.000000 2404.699951 
-1244.307007 -0.000000 2403.212891 
-1183.196045 0.000000 2403.152100 
-1122.160034 0.000000 2402.706055 
-1060.927979 -0.000000 2403.267090 
-1000.210999 -180.000000 2401.176025 
-1000.664978 -120.000000 2398.840088 
-1000.607971 -60.000000 2399.135986 
-999.995422 0.000000 2402.285889 
-373.135010 -180.000000 2334.081055 
-398.809387 -120.000000 2400.195068 
-385.766113 -120.000000 2397.658936 
-395.036407 -60.000000 2399.460938 
-243.509796 -60.000000 2370.007080 
-173.752899 -60.000000 2356.447998 
-338.955597 0.000000 2388.560059 
-518.766724 -209.342407 2362.388916 
-459.868988 -204.724304 2350.939941 
-400.971313 -197.811707 2339.491943 
-389.522888 -128.730499 2398.388916 
-330.625214 -76.010727 2386.940918 
-271.727600 -72.380257 2375.491943 
-153.932404 -66.299004 2352.594971 
-95.034737 -85.678398 2341.146973 
-389.522888 -48.167061 2398.388916 
-212.830002 -32.555069 2364.043945 
-512.927429 -180.000000 2392.428955 
-452.371399 -180.000000 2389.511963 
-393.783813 -180.000000 2376.468994 
-513.070679 -120.000000 2391.691895 
-451.962311 -120.000000 2391.616943 
-337.152191 -120.000000 2353.362061 
-512.907471 -60.000000 2392.531982 
-451.997498 -60.000000 2391.436035 
-215.672699 -60.000000 2349.418945 
-512.970581 -0.000000 2392.207031 
-451.944702 0.000000 2391.707031 
-391.102997 -0.000000 2390.260010 
-388.919708 -120.000000 2401.491943 
-389.164490 -60.000000 2400.232910 
-327.479614 -60.000000 2403.124023 
-269.088989 -60.000000 2389.066895 
-152.179596 -60.000000 2361.613037 
-88.297447 -60.000000 2375.806885 
-29.039761 -60.000000 2366.210938 
-330.376007 -0.000000 2388.222900 
-268.461792 0.000000 2392.293945 
-209.328094 0.000000 2382.060059 
-147.628204 0.000000 2385.027100 
-86.855347 -0.000000 2383.226074 
-25.776550 -0.000000 2382.999023 
-1653.300049 -660.000000 2338.427979 
-1652.913940 -600.000000 2338.353027 
-1645.985962 -540.000000 2337.006104 
-1638.666016 -480.000000 2335.583008 
-1625.288940 -660.000000 2394.104980 
-1535.937988 -660.000000 2376.738037 
-1631.666992 -600.000000 2395.344971 
-1537.870972 -600.000000 2377.114014 
-1629.807983 -540.000000 2394.983887 
-1535.791016 -540.000000 2376.708984 
-1626.279053 -480.000000 2394.298096 
-1513.583008 -480.000000 2372.393066 
-1609.238037 -660.000000 2412.510986 
-1550.250000 -660.000000 2401.528076 
-1609.449951 -600.000000 2411.418945 
-1551.182983 -600.000000 2396.728027 
-1609.671997 -540.000000 2410.279053 
-1550.224976 -540.000000 2401.656006 
-1610.404053 -480.000000 2406.510010 
-1550.390015 -480.000000 2400.805908 
-692.572571 -180.000000 2396.173096 
-683.928284 -120.000000 2394.492920 
-686.100708 -60.000000 2394.915039 
-693.232178 -0.000000 2396.302002 
-942.498596 -214.610199 2383.631104 
-883.601013 -213.430801 2372.181885 
-824.703430 -224.292892 2360.733887 
-765.805725 -218.100693 2349.284912 
-706.908081 -224.152206 2337.836914 
-636.562012 -195.417206 2385.285889 
-577.664185 -199.507706 2373.836914 
-951.524475 -240.000000 2337.197021 
-939.532471 -180.000000 2398.889893 
-878.564697 -180.000000 2398.092041 
-817.547119 -180.000000 2397.550049 
-757.151794 -180.000000 2393.805908 
-695.588684 -180.000000 2396.070068 
-939.735901 -120.000000 2397.843994 
-878.612915 -120.000000 2397.843994 
-817.375000 -120.000000 2398.435059 
-756.741516 -120.000000 2395.916992 
-695.860413 -120.000000 2394.672119 
-939.726013 -60.000000 2397.895020 
-878.831970 -60.000000 2396.717041 
-817.442871 -60.000000 2398.085938 
-756.561096 -60.000000 2396.844971 
-695.781677 -60.000000 2395.076904 
-999.995422 0.000000 2402.285889 
-939.078674 -0.000000 2401.225098 
-878.243103 0.000000 2399.747070 
-817.285889 -0.000000 2398.894043 
-756.502930 0.000000 2397.145020 
-695.536987 0.000000 2396.335938 
-634.218994 -180.000000 2397.339111 
-574.619812 -180.000000 2389.500000 
-634.920288 -120.000000 2393.731934 
-574.139282 -120.000000 2391.971924 
-634.830627 -60.000000 2394.193115 
-573.951172 -60.000000 2392.939941 
-634.619202 -0.000000 2395.281006 
-573.842407 0.000000 2393.499023 
-512.970581 0.000000 2392.207031 
243.171799 -240.000000 2336.529053 
118.267502 -180.000000 2360.808105 
243.979095 -180.000000 2336.372070 
132.121902 -120.000000 2358.114990 
32.332298 -60.000000 2377.511963 
10.177750 0.000000 2381.818115 
456.614014 -300.000000 2356.163086 
365.939911 -240.000000 2373.789062 
411.307312 -240.000000 2364.969971 
365.785187 -180.000000 2373.819092 
424.256714 -180.000000 2362.452881 
198.399399 -120.000000 2406.354980 
245.546402 -120.000000 2397.190918 
303.341187 -120.000000 2385.957031 
156.922806 -60.000000 2414.416992 
176.091400 -60.000000 2410.690918 
324.043304 -60.000000 2381.933105 
356.406586 -0.000000 2375.642090 
34.209080 -227.685303 2377.146973 
93.106689 -207.391296 2365.698975 
34.209080 -60.586048 2377.146973 
93.106689 -77.887047 2365.698975 
399.043396 -245.876495 2367.354004 
457.941101 -296.827087 2355.906006 
222.350494 -127.816399 2401.699951 
340.145813 -151.986694 2378.802002 
457.941101 -138.683899 2355.906006 
163.452896 -72.046783 2413.147949 
222.350494 -94.376907 2401.699951 
163.452896 -52.716560 2413.147949 
340.145813 -32.016811 2378.802002 
90.804604 -180.000000 2353.854980 
-25.776550 -0.000000 2382.999023 
36.727219 -240.000000 2390.102051 
97.809563 -240.000000 2389.893066 
158.138702 -240.000000 2385.809082 
214.982605 -240.000000 2363.794922 
155.761200 -180.000000 2373.577881 
215.610397 -180.000000 2367.023926 
333.059906 -180.000000 2342.349121 
158.967499 -120.000000 2390.072998 
278.902496 -120.000000 2378.184082 
34.352791 -60.000000 2377.886963 
97.584053 -60.000000 2388.732910 
218.910004 -60.000000 2384.000000 
279.925201 -60.000000 2383.445068 
34.961071 -0.000000 2381.016113 
96.529808 0.000000 2383.309082 
157.218399 0.000000 2381.073975 
217.810394 -0.000000 2378.343018 
278.812988 0.000000 2377.722900 
339.616699 -0.000000 2376.080078 
-2319.477051 -480.000000 450.860107 
-2320.040039 -420.000000 450.969513 
-2325.447998 -360.000000 452.020813 
-2325.702881 -300.000000 452.070190 
-2328.362061 -240.000000 452.587189 
-2328.611084 -180.000000 452.635590 
-2320.694092 -120.000000 451.096710 
-2323.569092 -60.000000 451.655487 
-2321.946045 0.000000 451.339996 
-2317.444092 -480.000000 511.587799 
-2320.592041 -420.000000 512.199829 
-2320.926025 -360.000000 512.264771 
-2323.365967 -300.000000 512.739075 
-2321.493896 -240.000000 512.375122 
-2328.216064 -180.000000 513.681824 
-2318.996094 -120.000000 511.889709 
-2320.292969 -60.000000 512.141724 
-2318.558105 -0.000000 511.804413 
-2316.329102 -480.000000 572.494324 
-2318.547119 -420.000000 572.925293 
-2320.990967 -360.000000 573.400513 
-2324.029053 -300.000000 573.991028 
-2319.269043 -240.000000 573.065674 
-2324.729980 -180.000000 574.127197 
-2315.065918 -120.000000 572.248718 
-2318.069092 -60.000000 572.832275 
-2320.080078 -0.000000 573.223389 
-2316.893066 -480.000000 633.726929 
-2318.135986 -420.000000 633.968384 
-2321.095947 -300.000000 634.543823 
-2320.492920 -120.000000 634.426514 
-2314.211914 -60.000000 633.205688 
-2317.643066 0.000000 633.872620 
-2316.215088 0.000000 662.131287 
356.406586 -0.000000 2375.642090 
457.941101 -296.827087 2355.906006 
457.941101 -138.683899 2355.906006 
458.260101 -300.000000 2357.547119 
400.930115 -240.000000 2377.060059 
407.114594 -180.000000 2408.876953 
224.582199 -120.000000 2413.179932 
344.157715 -120.000000 2399.441895 
407.542206 -120.000000 2411.075928 
462.187988 -120.000000 2377.753906 
164.380997 -60.000000 2417.923096 
340.598389 -60.000000 2381.131104 
400.924408 -60.000000 2377.031006 
463.118286 -60.000000 2382.540039 
400.467987 0.000000 2374.683105 
462.829010 0.000000 2381.052002 
-1639.229004 -0.000000 2274.569092 
-1643.439941 -420.000000 2336.510986 
-1641.991943 -360.000000 2336.229004 
-1639.567017 -300.000000 2335.758057 
-1647.166992 -240.000000 2337.236084 
-1639.277954 -180.000000 2335.701904 
-1647.496948 -120.000000 2337.299072 
-1639.167969 -60.000000 2335.679932 
-1646.206055 -0.000000 2337.049072 
-1627.577026 -420.000000 2394.550049 
-1627.240967 -360.000000 2394.485107 
-1627.165039 -300.000000 2394.469971 
-1625.964966 -240.000000 2394.237061 
-1627.708008 -180.000000 2394.575928 
-1626.500000 -120.000000 2394.341064 
-1626.197998 -60.000000 2394.281982 
-1624.910034 -0.000000 2394.031982 
-1609.843018 -420.000000 2409.399902 
-1550.362061 -420.000000 2400.952881 
-1610.052979 -360.000000 2408.319092 
-1551.473999 -360.000000 2395.231934 
-1610.422974 -300.000000 2406.412109 
-1550.373047 -300.000000 2400.895020 
-1610.151978 -240.000000 2407.808105 
-1550.868042 -240.000000 2398.349121 
-1609.970947 -180.000000 2408.738037 
-1550.878052 -180.000000 2398.295898 
-1610.189941 -120.000000 2407.612061 
-1550.735962 -120.000000 2399.027100 
-1610.135010 -60.000000 2407.895020 
-1549.836060 -60.000000 2403.657959 
-1610.437012 -0.000000 2406.343994 
-1549.572998 0.000000 2405.011963 
-1488.584961 -0.000000 2404.312988 
-2330.621094 -660.000000 453.026215 
-2313.668945 -600.000000 449.731110 
-2313.894043 -540.000000 449.774811 
-2308.059082 -660.000000 509.763702 
-2311.311035 -600.000000 510.395813 
-2315.519043 -540.000000 511.213715 
-2311.685059 -660.000000 571.591370 
-2314.965088 -600.000000 572.229126 
-2316.087891 -540.000000 572.447327 
-2309.416016 -660.000000 632.273376 
-2313.533936 -600.000000 633.073914 
-2313.791016 -540.000000 633.123901 
-2308.633057 -600.000000 693.244202 
-2310.075928 -540.000000 693.524719 
-2400.886963 -480.000000 161.069504 
-2409.447021 -420.000000 162.733505 
-2408.113037 -360.000000 162.474197 
-2380.136963 -240.000000 157.036102 
-2381.447998 -180.000000 157.291107 
-2387.029053 -120.000000 158.375793 
-2384.002930 -60.000000 157.787598 
-2359.468994 0.000000 153.018707 
-2331.770020 -480.000000 208.757507 
-2332.479980 -420.000000 208.895599 
-2328.850098 -360.000000 208.190002 
-2324.320068 -300.000000 207.309402 
-2334.099121 -240.000000 209.210297 
-2339.485107 -180.000000 210.257202 
-2327.995117 -120.000000 208.023804 
-2318.604980 -60.000000 206.198593 
-2322.322021 0.000000 206.921204 
-2325.177002 -480.000000 268.599091 
-2327.366943 -420.000000 269.024689 
-2327.218994 -360.000000 268.995911 
-2326.010010 -300.000000 268.760895 
-2327.298096 -240.000000 269.011414 
-2332.659912 -180.000000 270.053589 
-2327.552002 -120.000000 269.060791 
-2323.278076 -60.000000 268.229797 
-2326.739990 -0.000000 268.903015 
-2334.560059 -480.000000 331.545807 
-2331.415039 -420.000000 330.934509 
-2333.714111 -360.000000 331.381592 
-2329.585938 -300.000000 330.579010 
-2330.625977 -240.000000 330.781311 
-2333.043945 -180.000000 331.251312 
-2325.314941 -120.000000 329.748810 
-2323.572998 -60.000000 329.410309 
-2324.408936 -0.000000 329.572693 
-2327.731934 -480.000000 391.341797 
-2328.134033 -420.000000 391.419800 
-2328.699951 -360.000000 391.529907 
-2332.041992 -300.000000 392.179413 
-2331.285889 -240.000000 392.032501 
-2337.215088 -180.000000 393.184998 
-2326.218994 -120.000000 391.047607 
-2324.366943 -60.000000 390.687714 
-2317.811035 0.000000 389.413300 
-2319.477051 -480.000000 450.860107 
-2320.040039 -420.000000 450.969513 
-2325.447998 -360.000000 452.020813 
-2325.702881 -300.000000 452.070190 
-2328.362061 -240.000000 452.587189 
-2328.611084 -180.000000 452.635590 
-2320.694092 -120.000000 451.096710 
-2323.569092 -60.000000 451.655487 
-2321.946045 0.000000 451.339996 
-2413.147949 -318.761597 163.452896 
-2413.147949 -296.313904 163.452896 
-2331.353027 -193.064499 269.799591 
-2331.353027 -166.537399 269.799591 
-2413.927002 -480.000000 159.446793 
-2413.502930 -420.000000 161.629105 
-2413.624023 -360.000000 161.005295 
-2415.116943 -240.000000 153.323700 
-2416.212891 -180.000000 147.683197 
-2415.502930 -120.000000 151.337601 
-2415.808105 -60.000000 149.767105 
-2416.441895 0.000000 146.507401 
-2346.048096 -480.000000 194.201401 
-2345.430908 -420.000000 197.373993 
-2346.032959 -360.000000 194.277405 
-2412.789062 -300.000000 165.301407 
-2346.210938 -300.000000 193.361801 
-2346.020020 -240.000000 194.348999 
-2343.992920 -180.000000 204.771805 
-2346.770020 -120.000000 190.485107 
-2348.500000 -60.000000 181.587204 
-2352.534912 -0.000000 160.828293 
-2335.315918 -180.000000 249.412003 
-2325.697998 -480.000000 298.894409 
-2326.719971 -420.000000 293.632599 
-2327.833008 -360.000000 287.911102 
-2326.976074 -300.000000 292.319305 
-2327.656006 -240.000000 288.822113 
-2326.141113 -120.000000 296.614807 
-2323.214111 -60.000000 311.673401 
-2325.097900 -0.000000 301.981903 
-2380.898926 -660.000000 157.184402 
-2396.831055 -540.000000 160.281097 
-2339.238037 -660.000000 210.209198 
-2343.749023 -600.000000 211.086105 
-2335.336914 -540.000000 209.450897 
-2336.724121 -660.000000 270.843506 
-2331.208984 -600.000000 269.771606 
-2326.059082 -540.000000 268.770599 
-2328.205078 -660.000000 330.310699 
-2326.971924 -600.000000 330.071014 
-2331.781006 -540.000000 331.005707 
-2337.102051 -660.000000 393.163086 
-2334.179932 -600.000000 392.595001 
-2323.176025 -540.000000 390.456085 
-2330.621094 -660.000000 453.026215 
-2313.668945 -600.000000 449.731110 
-2313.894043 -540.000000 449.774811 
-2319.477051 -480.000000 450.860107 
-2413.147949 -605.103516 163.452896 
-2413.147949 -585.517273 163.452896 
-2342.802002 -608.918884 210.901993 
-2342.802002 -595.111084 210.901993 
-2331.353027 -603.041504 269.799591 
-2415.891113 -660.000000 149.341095 
-2413.843018 -540.000000 159.878998 
-2344.294922 -660.000000 203.219696 
-2412.396973 -600.000000 167.318100 
-2345.576904 -540.000000 196.623703 
-2336.502930 -660.000000 243.308502 
-2333.643066 -600.000000 258.020111 
-2330.775879 -600.000000 272.771515 
-2325.405029 -540.000000 300.401703 
-1013.937012 -120.000000 -3225.799072 
-883.283020 -120.000000 -3251.195068 
-874.825073 -120.000000 -3252.839111 
-844.855713 -60.000000 -3258.665039 
-1048.711060 -0.000000 -3219.039062 
-953.646423 -480.000000 -3115.271973 
-956.722107 -420.000000 -3114.674072 
-966.197815 -360.000000 -3112.832031 
-962.494873 -300.000000 -3113.552002 
-982.314880 -240.000000 -3109.698975 
-960.608826 -180.000000 -3113.918945 
-994.503296 -132.698807 -3229.575928 
-935.605591 -129.761002 -3241.024902 
-817.810425 -145.564804 -3263.922119 
-758.912720 -130.029999 -3275.370117 
-700.015076 -133.585907 -3286.819092 
-641.117493 -134.439194 -3298.267090 
-994.503296 -71.014832 -3229.575928 
-935.605591 -98.785988 -3241.024902 
-994.503296 -57.716309 -3229.575928 
-935.605591 -41.759861 -3241.024902 
-876.707886 -35.392071 -3252.472900 
-1100.849976 -145.123398 -3147.781006 
-1041.952026 -146.828796 -3159.229980 
-983.054688 -155.225998 -3170.677979 
-924.157104 -149.847198 -3182.126953 
-865.259521 -153.307495 -3193.575928 
-806.361816 -152.057907 -3205.023926 
-747.464172 -150.352798 -3216.472900 
-688.566528 -150.559601 -3227.920898 
-629.668884 -153.912201 -3239.370117 
-971.606201 -273.953491 -3111.781006 
-971.606201 -208.825607 -3111.781006 
-912.708618 -170.412994 -3123.229004 
-853.810974 -161.177399 -3134.677979 
-794.913330 -163.620697 -3146.125977 
-736.015686 -162.077896 -3157.574951 
-677.117981 -168.647598 -3169.023926 
-618.220398 -171.986298 -3180.471924 
-1105.489990 -120.000000 -3171.653076 
-1047.525024 -120.000000 -3187.898926 
-876.417175 -120.000000 -3250.977051 
-1107.079956 -60.000000 -3179.834961 
-1049.092041 -60.000000 -3195.958008 
-993.805725 -60.000000 -3225.987061 
-930.288025 -60.000000 -3213.667969 
-870.359802 -60.000000 -3219.814941 
-1105.511963 -0.000000 -3171.766113 
-1052.038940 -0.000000 -3211.121094 
-1093.484985 -480.000000 -3109.891113 
-1032.942993 -480.000000 -3112.883057 
-972.464905 -480.000000 -3116.197998 
-1094.623047 -420.000000 -3115.745117 
-1033.306030 -420.000000 -3114.747070 
-972.182922 -420.000000 -3114.748047 
-1093.749023 -360.000000 -3111.248047 
-1033.491943 -360.000000 -3115.707031 
-971.896729 -360.000000 -3113.274902 
-1094.516968 -300.000000 -3115.198975 
-1033.338989 -300.000000 -3114.920898 
-971.964783 -300.000000 -3113.625000 
-1093.412964 -240.000000 -3109.523926 
-1032.562012 -240.000000 -3110.922119 
-1095.243042 -180.000000 -3118.937012 
-1033.754028 -180.000000 -3117.054932 
-972.397522 -180.000000 -3115.852051 
-910.973022 -480.000000 -3114.301025 
-850.244202 -480.000000 -3116.329102 
-788.699829 -480.000000 -3114.160889 
-729.125427 -480.000000 -3122.126953 
-669.159790 -480.000000 -3128.082031 
-615.631897 -480.000000 -3167.155029 
-911.184998 -420.000000 -3115.391113 
-850.105774 -420.000000 -3115.616943 
-788.779602 -420.000000 -3114.571045 
-727.923279 -420.000000 -3115.943115 
-668.263184 -420.000000 -3123.468994 
-613.964111 -420.000000 -3158.574951 
-910.625000 -360.000000 -3112.510010 
-849.741882 -360.000000 -3113.745117 
-789.244995 -360.000000 -3116.965088 
-729.045288 -360.000000 -3121.716064 
-667.592285 -360.000000 -3120.018066 
-615.714172 -360.000000 -3167.579102 
-910.942871 -300.000000 -3114.145996 
-850.305176 -300.000000 -3116.643066 
-789.363403 -300.000000 -3117.574951 
-728.764709 -300.000000 -3120.271973 
-667.176270 -300.000000 -3117.877930 
-612.702026 -300.000000 -3152.082031 
-971.248474 -240.000000 -3109.939941 
-911.966309 -240.000000 -3119.410889 
-850.026123 -240.000000 -3115.207031 
-789.002380 -240.000000 -3115.718018 
-727.976929 -240.000000 -3116.218994 
-668.716919 -240.000000 -3125.803955 
-613.887329 -240.000000 -3158.179932 
-911.116821 -180.000000 -3115.041016 
-851.376587 -180.000000 -3122.155029 
-790.601624 -180.000000 -3123.945068 
-730.220093 -180.000000 -3127.759033 
-673.161072 -180.000000 -3148.666992 
-616.029724 -180.000000 -3169.201904 
-2364.190918 -480.000000 -1496.384033 
-2356.125000 -420.000000 -1497.952026 
-2356.970947 -360.000000 -1497.787964 
-2355.468018 -300.000000 -1498.079956 
-2355.772949 -240.000000 -1498.020996 
-2352.866943 -180.000000 -1498.584961 
-2347.579102 -120.000000 -1499.613037 
-2346.668945 -60.000000 -1499.790039 
-2344.826904 -0.000000 -1500.147949 
-2356.751953 -480.000000 -1436.707031 
-2352.076904 -420.000000 -1437.615967 
-2346.545898 -360.000000 -1438.691040 
-2289.964111 -300.000000 -1449.689941 
-2318.864990 -240.000000 -1444.072021 
-2354.371094 -180.000000 -1437.170044 
-2347.215088 -120.000000 -1438.561035 
-2346.183105 -60.000000 -1438.761963 
-2344.211914 -0.000000 -1439.145020 
-2355.439941 -480.000000 -1375.838989 
-2348.208008 -420.000000 -1377.244995 
-2352.856934 -360.000000 -1376.340942 
-2357.406982 -300.000000 -1375.457031 
